ply
format ascii 1.0
element vertex 1584
property float x
property float y
property float z
end_header
-15.636600 7.718200 13.335800
-15.506400 7.901600 13.319000
-15.894200 7.534800 13.351200
-15.825600 7.586600 13.344200
-16.100000 7.442400 13.312000
-16.422000 7.201600 13.298000
-16.286200 7.313600 13.316200
-16.704800 6.379800 13.257400
-16.779000 6.525400 13.383400
-16.683800 6.962200 13.272800
-16.604000 7.082600 13.289600
-16.759400 7.418600 13.208400
-16.962400 5.861800 13.341400
-16.884000 6.018600 13.337200
-16.842000 6.284600 13.337200
-16.818200 6.503000 13.317600
-16.839200 6.833400 13.355400
-17.063200 7.278600 13.233600
-16.990400 7.446600 13.236400
-17.106600 5.871600 13.349800
-17.222800 5.898200 13.335800
-17.225600 7.204400 13.229400
-17.614800 5.861800 13.340000
-17.497200 5.920600 13.337200
-17.663800 5.864600 13.334400
-17.801000 5.982200 13.340000
-18.176200 5.863200 13.289600
-18.064200 5.978000 13.319000
-18.023600 6.258000 13.298000
-18.053000 6.540800 13.299400
-18.345600 5.765200 13.306400
-18.333000 5.955600 13.250400
-18.655000 5.531400 13.307800
-18.551400 5.667200 13.296600
-18.485600 5.880000 13.204200
-18.849600 4.970000 13.333000
-18.909800 5.195400 13.324600
-18.873400 5.398400 13.328800
-18.797800 5.762400 13.200000
-19.297600 5.012000 13.324600
-19.205200 5.096000 13.338600
-19.464200 4.925200 13.307800
-19.328400 5.056800 13.338600
-19.772200 4.688600 13.303600
-19.657400 4.802000 13.321800
-20.155800 3.844400 13.362400
-20.087200 4.051600 13.338600
-20.119400 4.372200 13.323200
-19.987800 4.550000 13.330200
-20.273400 3.347400 13.326000
-20.259400 3.469200 13.345600
-20.181000 3.742200 13.338600
-20.183800 4.008200 13.358200
-20.182400 4.306400 13.317600
-20.332200 4.496800 13.214000
-20.584200 3.410400 13.338600
-20.966400 3.337600 13.334400
-20.857200 3.425800 13.335800
-21.128800 3.481800 13.340000
-21.287000 3.540600 13.365200
-5.836600 13.948200 13.629800
-5.878600 14.212800 13.673200
-5.875800 14.438200 13.634000
-5.873000 14.632800 13.615800
-5.982200 13.937000 13.617200
-5.885600 14.144200 13.618600
-5.884200 14.422800 13.597600
-5.961200 14.644000 13.620000
-6.294400 13.930000 13.617200
-6.571600 13.931400 13.621400
-6.578600 14.681800 13.624200
-6.925800 13.402200 13.617200
-6.896400 13.575800 13.627000
-6.839000 13.847400 13.610200
-6.794200 14.767200 13.643800
-6.865600 15.071000 13.622800
-6.888000 15.213800 13.607400
-7.114800 13.405000 13.617200
-7.224000 13.448400 13.601800
-7.106400 15.248800 13.642400
-7.431200 13.423200 13.625600
-7.410200 13.463800 13.625600
-7.471800 15.218000 13.760000
-7.617400 13.398000 13.625600
-7.739200 13.529600 13.597600
-7.957600 13.514200 13.620000
-7.995400 13.797000 13.643800
-7.917000 15.185800 13.508000
-8.258600 13.609400 13.618600
-8.299200 13.869800 13.678800
-8.545600 13.776000 13.687200
-8.577800 15.050000 13.585000
-8.849400 12.489400 13.611600
-8.894200 12.754000 13.621400
-8.857800 12.901000 13.642400
-8.815800 15.925000 13.610200
-8.828400 16.185400 13.624200
-8.822800 16.287600 13.599000
-9.154600 12.569200 13.615800
-9.052400 12.612600 13.624200
-9.102800 12.986400 13.650800
-9.098600 16.203600 13.530400
-9.284800 12.530000 13.617200
-9.241400 12.618200 13.502400
-9.251200 16.186800 13.663400
-9.478000 16.822400 13.503800
-9.396800 17.225600 13.687200
-9.704800 12.520200 13.627000
-9.606800 17.318000 13.683000
-9.690800 17.474800 13.694200
-10.043600 11.551400 13.643800
-9.828000 12.448800 13.725000
-9.823800 17.551800 13.695600
-9.885400 17.656800 13.676000
-10.285800 10.869600 13.607400
-10.259200 11.064200 13.621400
-10.217200 11.342800 13.627000
-10.133200 11.590600 13.617200
-10.136000 11.869200 13.606000
-10.193400 17.518200 13.642400
-10.312400 18.005400 13.620000
-10.479000 10.871000 13.627000
-10.591000 10.921400 13.624200
-10.558800 12.068000 13.655000
-10.501400 17.984400 13.631200
-10.813600 10.890600 13.629800
-10.749200 10.942400 13.615800
-10.743600 12.167400 13.681600
-10.831800 17.950800 13.564000
-10.988600 10.865400 13.621400
-11.092200 10.998400 13.621400
-11.148200 17.914400 13.517800
-11.327400 10.990000 13.618600
-11.464600 11.457600 13.694200
-11.404400 11.510800 13.678800
-11.316200 17.882200 13.608800
-11.319000 17.938200 13.543000
-11.575200 11.064200 13.548600
-11.622800 11.349800 13.699800
-12.024600 9.098600 13.648000
-12.028800 9.340800 13.660600
-12.017600 9.521400 13.524800
-12.028800 10.830400 13.548600
-11.908400 11.148200 13.666200
-11.860800 11.207000 13.678800
-12.118400 9.367400 13.687200
-12.084800 9.588600 13.530400
-12.220600 9.942800 13.620000
-12.272400 10.227000 13.617200
-12.254200 10.381000 13.635400
-12.103000 11.099200 13.681600
-12.198200 18.716600 13.639600
-12.191200 19.003600 13.657800
-12.244400 19.061000 13.660600
-12.483800 10.046400 13.604600
-12.450200 10.092600 13.632600
-12.336800 10.411800 13.650800
-12.436200 18.953200 13.635400
-12.635000 10.032400 13.629800
-13.392400 9.021600 13.628400
-13.434400 9.436000 13.676000
-13.430200 19.689600 13.608800
-13.421800 20.004600 13.618600
-13.637400 8.346800 13.617200
-13.605200 8.535800 13.618600
-13.557600 8.827000 13.624200
-13.496000 9.097200 13.613000
-13.500200 9.359000 13.622800
-13.532400 9.520000 13.611600
-13.706000 9.896600 13.638200
-13.466600 19.468400 13.725000
-13.459600 19.742800 13.631200
-13.494600 20.087200 13.608800
-13.550600 20.307000 13.631200
-13.563200 20.479200 13.608800
-13.865600 8.353800 13.617200
-13.815200 9.503200 13.635400
-13.892200 9.703400 13.650800
-13.795600 9.875600 13.683000
-14.151200 8.370600 13.621400
-14.121800 8.409800 13.618600
-14.029400 9.620800 13.730600
-14.350000 8.349600 13.618600
-14.473200 8.475600 13.624200
-14.697200 8.478400 13.624200
-14.714000 8.884400 13.593400
-14.761600 9.052400 13.718000
-14.961800 8.846600 13.678800
-15.169000 8.426600 13.527600
-15.234800 8.716400 13.659200
-15.569400 7.448000 13.618600
-15.635200 7.719600 13.618600
-15.590400 7.869400 13.636800
-15.859200 7.529200 13.629800
-15.845200 7.581000 13.617200
-15.757000 7.912800 13.694200
-16.003400 7.532000 13.608800
-16.641800 6.343400 13.620000
-16.742600 6.581400 13.601800
-16.795800 6.788600 13.730600
-16.745400 7.330400 13.488400
-16.959600 5.863200 13.610200
-16.888200 6.011600 13.617200
-16.842000 6.284600 13.617200
-16.861600 6.673800 13.552800
-16.868600 6.763400 13.676000
-17.116400 5.875800 13.620000
-17.234000 5.899600 13.621400
-17.113600 6.981800 13.646600
-17.217200 7.053200 13.636800
-17.610600 5.854800 13.639600
-17.511200 5.920600 13.621400
-17.662400 5.863200 13.607400
-17.802400 5.979400 13.627000
-18.006800 6.015800 13.611600
-18.055800 6.230000 13.632600
-18.842600 4.965800 13.615800
-18.919600 5.171600 13.614400
-18.886000 5.388600 13.624200
-19.199600 5.101600 13.607400
-19.107200 5.420800 13.617200
-20.150200 3.878000 13.628400
-20.092800 4.048800 13.628400
-20.122200 4.370800 13.601800
-20.083000 4.517800 13.628400
-20.269200 3.347400 13.620000
-20.256600 3.467800 13.624200
-20.182400 3.756200 13.625600
-20.178200 4.057200 13.638200
-20.206200 4.319000 13.589200
-20.578600 3.411800 13.617200
-20.532400 4.526200 13.645200
-20.955200 3.344600 13.622800
-20.860000 3.427200 13.622800
-21.151200 3.490200 13.622800
-21.291200 3.539200 13.688600
-5.835200 13.945400 13.883200
-5.877200 14.189000 13.879000
-5.875800 14.417200 13.907000
-5.873000 14.628600 13.916800
-5.983600 13.937000 13.894400
-5.887000 14.127400 13.902800
-5.884200 14.414400 13.888800
-5.924800 14.651000 13.867800
-6.301400 13.931400 13.898600
-6.294400 14.679000 13.865000
-6.581400 13.934200 13.904200
-6.568800 14.676200 13.795000
-6.928600 13.399400 13.902800
-6.899200 13.584200 13.895800
-6.839000 13.851600 13.897200
-6.756400 14.697200 13.943400
-6.860000 15.057000 13.898600
-6.875400 15.201200 13.897200
-7.105000 13.402200 13.897200
-7.212800 13.448400 13.895800
-7.152600 15.244600 13.869200
-7.436800 13.423200 13.893000
-7.411600 13.462400 13.902800
-7.350000 15.225000 13.935000
-7.617400 13.395200 13.912600
-7.737800 13.529600 13.890200
-7.708400 15.241800 13.897200
-7.961800 13.512800 13.900000
-7.994000 13.994400 13.793600
-8.002400 14.044800 13.949000
-8.009400 14.418600 13.818800
-8.065400 14.638400 13.921000
-7.845600 15.167600 14.005000
-8.240400 13.599600 13.855200
-8.309000 13.865600 13.888800
-8.202600 14.042000 13.898600
-8.145200 14.651000 13.922400
-8.608600 13.703200 13.879000
-8.537200 13.780200 13.900000
-8.524600 14.898800 14.023200
-8.845200 12.486600 13.887400
-8.895600 12.749800 13.901400
-8.864800 12.905200 13.914000
-8.825600 15.937600 13.813200
-8.849400 16.168600 13.900000
-8.814400 16.282000 13.881800
-9.140600 12.565000 13.891600
-9.083200 12.615400 13.898600
-9.105600 13.007400 13.935000
-9.150400 16.226000 13.977000
-9.279200 12.530000 13.918200
-9.247000 12.621000 13.947600
-9.412200 17.241000 13.893000
-9.772000 12.448800 13.856600
-9.612400 17.332000 13.907000
-9.689400 17.462200 13.909800
-10.042200 11.550000 13.884600
-9.909200 12.395600 13.911200
-10.045000 16.941400 13.988200
-10.057600 17.270400 13.827200
-9.830800 17.558800 13.863600
-10.288600 10.866800 13.895800
-10.257800 11.061400 13.893000
-10.214400 11.356800 13.904200
-10.131800 11.604600 13.912600
-10.133200 11.863600 13.909800
-10.088400 16.991800 14.019000
-10.479000 10.871000 13.901400
-10.599400 10.924200 13.905600
-10.508400 12.028800 13.778200
-10.603600 12.122600 13.816000
-10.449600 17.995600 13.839800
-10.791200 10.890600 13.902800
-10.753400 10.941000 13.904200
-10.836000 12.196800 13.922400
-10.984400 10.868200 13.908400
-11.102000 11.005400 13.911200
-11.018000 18.027800 14.033000
-11.342800 10.983000 13.905600
-11.419800 11.404400 13.909800
-11.411400 11.513600 13.863600
-11.345600 17.935400 13.950400
-11.600400 11.048800 13.915400
-11.632600 11.338600 13.902800
-11.491200 11.481400 13.970000
-11.996600 6.927200 13.989600
-11.995200 7.898800 13.951800
-11.949000 8.145200 13.768400
-11.890200 8.587600 13.953200
-11.935000 8.717800 13.923800
-11.918200 11.155200 13.894400
-11.870600 11.215400 13.919600
-12.097400 7.799400 13.922400
-12.177200 8.023400 13.897200
-12.126800 8.226400 13.834200
-12.096000 8.467200 13.904200
-12.094600 8.752800 13.911200
-12.048400 9.123800 13.809000
-12.227600 9.948400 13.900000
-12.271000 10.238200 13.901400
-12.247200 10.371200 13.813200
-12.096000 11.093600 13.914000
-12.195400 18.706800 13.897200
-12.199600 18.961600 13.858000
-12.262600 19.061000 13.876200
-12.342400 7.231000 13.935000
-12.462800 8.022000 13.981200
-12.383000 8.185800 14.002200
-12.464200 10.047800 13.909800
-12.490800 10.096800 13.881800
-12.432000 18.943400 13.876200
-12.632200 7.935200 14.007800
-12.642000 10.031000 13.900000
-12.636400 18.925200 13.891600
-13.410600 9.016000 13.890200
-13.435800 9.427600 13.907000
-13.437200 19.590200 14.030200
-13.424600 19.663000 13.872000
-13.428800 19.992000 13.879000
-13.640200 8.344000 13.900000
-13.602400 8.544200 13.894400
-13.560400 8.829800 13.904200
-13.497400 9.094400 13.888800
-13.503000 9.352000 13.908400
-13.641600 9.608200 13.914000
-13.720000 9.982000 13.946200
-13.459600 19.468400 13.930800
-13.456800 19.740000 13.908400
-13.494600 20.085800 13.890200
-13.552000 20.297200 13.905600
-13.567400 20.456800 13.915400
-13.855800 8.351000 13.907000
-13.879600 9.506000 13.900000
-13.885200 9.704800 13.884600
-13.776000 9.891000 13.893000
-14.145600 8.372000 13.897200
-14.128800 8.412600 13.904200
-14.021000 9.657200 13.897200
-14.355600 8.348200 13.898600
-14.466200 8.471400 13.897200
-14.690200 8.475600 13.901400
-14.711200 8.897000 13.914000
-14.778400 9.032800 13.915400
-15.022000 8.611400 13.968600
-14.978600 8.845200 13.897200
-15.208200 8.726200 13.937800
-15.579200 7.456400 13.898600
-15.636600 7.719600 13.901400
-15.589000 7.872200 13.929400
-15.853600 7.530600 13.909800
-15.839600 7.581000 13.912600
-15.801800 7.905800 13.951800
-16.003400 7.534800 13.901400
-16.647400 6.346200 13.901400
-16.730000 6.575800 13.900000
-16.781800 6.869800 13.928000
-16.956800 5.860400 13.884600
-16.895200 6.007400 13.900000
-16.842000 6.283200 13.898600
-16.825200 6.634600 13.905600
-16.853200 6.881000 13.870600
-16.928800 7.021000 14.012000
-17.124800 5.874400 13.887400
-17.234000 5.903800 13.904200
-17.159800 6.986000 13.851000
-17.217200 7.135800 13.956000
-17.612000 5.860400 13.895800
-17.512600 5.922000 13.904200
-17.668000 5.864600 13.901400
-17.799600 5.976600 13.902800
-17.999800 6.020000 13.894400
-18.054400 6.255200 13.971400
-18.062800 6.490400 13.848200
-18.851000 4.988200 13.888800
-18.926600 5.181400 13.900000
-18.887400 5.388600 13.908400
-19.194000 5.098800 13.902800
-19.100200 5.401200 13.837000
-20.151600 3.852800 13.884600
-20.080200 4.043200 13.895800
-20.122200 4.368000 13.894400
-20.081600 4.515000 13.907000
-20.279000 3.347400 13.914000
-20.256600 3.465000 13.901400
-20.183800 3.750600 13.901400
-20.179600 4.062800 13.852400
-20.179600 4.328800 13.883200
-20.358800 4.482800 13.873400
-20.580000 3.409000 13.894400
-20.531000 4.519200 13.916800
-20.967800 3.336200 13.879000
-20.854400 3.430000 13.901400
-21.001400 3.355800 13.957400
-21.151200 3.493000 13.905600
-21.284200 3.550400 13.954600
-5.836600 13.948200 14.180000
-5.878600 14.176400 14.163200
-5.877200 14.446600 14.150600
-5.873000 14.628600 14.181400
-5.980800 13.937000 14.178600
-5.887000 14.134400 14.174400
-5.884200 14.406000 14.192600
-5.964000 14.651000 14.188400
-6.301400 13.932800 14.180000
-6.244000 14.677600 14.212200
-6.580000 13.938400 14.175800
-6.595400 14.683200 14.096000
-6.931400 13.398000 14.175800
-6.899200 13.580000 14.180000
-6.840400 13.850200 14.182800
-6.854400 15.054200 14.187000
-6.879600 15.212400 14.166000
-7.123200 13.403600 14.182800
-7.221200 13.448400 14.170200
-7.110600 15.247400 14.173000
-7.420000 13.421800 14.175800
-7.417200 13.462400 14.185600
-7.438200 15.220800 14.178600
-7.620200 13.398000 14.175800
-7.730800 13.521200 14.170200
-7.690200 15.244600 14.192600
-7.954800 13.511400 14.175800
-7.992600 13.805400 14.066600
-7.999600 14.109200 14.178600
-8.005200 14.422800 14.294800
-8.065400 14.627200 14.181400
-8.194200 13.567400 14.108600
-8.306200 13.871200 14.153400
-8.195600 14.043400 14.282200
-8.162000 14.516600 14.287800
-8.139600 14.667800 14.145000
-8.615600 13.717200 14.131000
-8.527400 13.781600 14.184200
-8.549800 14.995400 14.163200
-8.846600 12.479600 14.182800
-8.892800 12.758200 14.174400
-8.864800 12.909400 14.161800
-8.841000 15.954400 14.222000
-8.850800 16.144800 14.182800
-8.822800 16.284800 14.174400
-9.135000 12.562200 14.173000
-9.076200 12.616800 14.196800
-9.097200 13.034000 14.219200
-9.167200 16.228800 14.192600
-9.280600 12.527200 14.184200
-9.240000 12.618200 14.314400
-9.412200 17.221400 14.187000
-9.580200 17.332000 14.178600
-9.693600 17.446800 14.189800
-10.045000 11.557000 14.160400
-9.893800 12.391400 14.094600
-10.056200 16.930200 14.161800
-9.822400 17.551800 14.152000
-10.287200 10.869600 14.175800
-10.256400 11.067000 14.180000
-10.217200 11.347000 14.180000
-10.133200 11.597600 14.188400
-10.134600 11.860800 14.184200
-10.127600 12.272400 14.282200
-10.106600 17.029600 14.154800
-10.130400 17.140200 14.250000
-10.490200 10.876600 14.184200
-10.614800 10.924200 14.163200
-10.523800 12.028800 14.224800
-10.581200 12.094600 14.279400
-10.516800 17.978800 14.209400
-10.803800 10.890600 14.187000
-10.752000 10.942400 14.174400
-10.739400 17.955000 14.187000
-10.978800 10.868200 14.181400
-11.099200 11.005400 14.188400
-11.141200 17.886400 14.199600
-11.093600 17.935400 14.188400
-11.331600 10.991400 14.180000
-11.459000 11.477200 14.069400
-11.418400 11.513600 14.177200
-11.370800 17.903200 14.096000
-11.291000 17.952200 14.159000
-11.628400 11.069800 14.152000
-11.624200 11.370800 14.171600
-11.982600 7.299600 14.216400
-12.040000 7.879200 14.076400
-11.940600 8.548400 14.080600
-11.932200 11.145400 14.173000
-11.856600 11.228000 14.208000
-12.070800 7.222600 14.075000
-12.111400 7.344400 14.261200
-12.163200 8.089200 14.210800
-12.159000 8.229200 14.203800
-12.189800 8.517600 14.216400
-12.230400 8.713600 14.062400
-12.227600 9.951200 14.181400
-12.272400 10.234000 14.178600
-12.258400 10.379600 14.181400
-12.104400 11.076800 14.163200
-12.184200 18.702600 14.114200
-12.198200 18.838400 14.170200
-12.237400 19.056800 14.054000
-12.569200 7.123200 14.275200
-12.490800 7.673400 14.224800
-12.356400 8.114400 14.300400
-12.516000 8.206800 14.115600
-12.434800 8.542800 14.178600
-12.457200 10.046400 14.181400
-12.496400 10.099600 14.180000
-12.492200 18.947600 14.107200
-12.619600 7.165200 14.245800
-12.801600 7.299600 14.241600
-12.640600 10.033800 14.184200
-13.399400 9.017400 14.174400
-13.434400 9.427600 14.216400
-13.430200 19.689600 14.154800
-13.417600 20.017200 14.191200
-13.643000 8.341200 14.185600
-13.605200 8.535800 14.182800
-13.560400 8.828400 14.175800
-13.496000 9.091600 14.178600
-13.501600 9.356200 14.177200
-13.445600 19.496400 14.128200
-13.459600 19.737200 14.213600
-13.498800 20.088600 14.182800
-13.552000 20.308400 14.174400
-13.567400 20.463800 14.252800
-13.867000 8.355200 14.181400
-13.875400 9.503200 14.208000
-13.882400 9.667000 14.175800
-13.794200 9.881200 14.185600
-14.152600 8.369200 14.173000
-14.112000 8.408400 14.178600
-14.191800 8.860600 14.184200
-14.106400 9.095800 14.241600
-14.105000 9.643200 14.167400
-14.357000 8.349600 14.188400
-14.471800 8.475600 14.175800
-14.386400 9.133600 14.231800
-14.697200 8.478400 14.180000
-14.768600 9.044000 14.177200
-15.075200 8.618400 14.175800
-14.977200 8.859200 14.175800
-15.195600 8.717800 14.171600
-15.587600 7.453600 14.180000
-15.638000 7.715400 14.181400
-15.586200 7.863800 14.185600
-15.853600 7.529200 14.185600
-15.863400 7.578200 14.188400
-15.797600 7.912800 14.196800
-16.002000 7.536200 14.181400
-16.641800 6.340600 14.180000
-16.730000 6.575800 14.171600
-16.776200 6.895000 14.171600
-16.952600 5.863200 14.181400
-16.899400 6.008800 14.177200
-16.842000 6.291600 14.180000
-16.843400 6.603800 14.187000
-16.825200 6.854400 14.167400
-17.007200 7.089600 14.087600
-17.122000 5.875800 14.180000
-17.229800 5.905200 14.170200
-17.171000 6.991600 14.052600
-17.602200 5.859000 14.201000
-17.505600 5.924800 14.178600
-17.663800 5.856200 14.132400
-17.782800 5.966800 14.198200
-18.002600 6.024200 14.180000
-18.060000 6.525400 14.198200
-18.874800 4.984000 14.175800
-18.929400 5.174400 14.177200
-18.890200 5.385800 14.175800
-19.199600 5.101600 14.182800
-19.128200 5.413800 14.146400
-20.151600 3.851400 14.187000
-20.088600 4.041800 14.175800
-20.123600 4.368000 14.180000
-20.085800 4.508000 14.185600
-20.286000 3.350200 14.195400
-20.253800 3.469200 14.173000
-20.185200 3.740800 14.173000
-20.178200 4.078200 14.170200
-20.199200 4.356800 14.180000
-20.416200 4.480000 14.203800
-20.573000 3.410400 14.174400
-20.531000 4.522000 14.188400
-20.959400 3.344600 14.147800
-20.850200 3.428600 14.181400
-21.134400 3.480400 14.174400
-21.289800 3.535000 14.283600
-5.840800 13.948200 14.457200
-5.878600 14.207200 14.440400
-5.875800 14.436800 14.476800
-5.871600 14.624400 14.451600
-5.975200 13.938400 14.454400
-5.888400 14.133000 14.460000
-5.882800 14.382200 14.433400
-6.007400 14.667800 14.471200
-6.298600 13.937000 14.465600
-6.291600 14.673400 14.462800
-6.575800 13.941200 14.458600
-6.557600 14.681800 14.506200
-6.931400 13.395200 14.454400
-6.902000 13.587000 14.451600
-6.839000 13.857200 14.464200
-6.855800 15.044400 14.464200
-6.875400 15.195600 14.451600
-7.119000 13.402200 14.455800
-7.217000 13.448400 14.465600
-7.266000 15.239000 14.465600
-7.425600 13.423200 14.472600
-7.406000 13.462400 14.444600
-7.407400 15.219400 14.460000
-7.614600 13.402200 14.448800
-7.732200 13.524000 14.432000
-7.721000 15.197000 14.404000
-8.041600 13.419000 14.583200
-7.968800 13.522600 14.472600
-7.989800 13.777400 14.489400
-8.002400 14.053200 14.426400
-8.058400 14.631400 14.464200
-7.897400 15.202600 14.481000
-8.250200 13.318200 14.566400
-8.271200 13.536600 14.528600
-8.306200 13.885200 14.457200
-8.127000 14.673400 14.537000
-8.226400 15.463000 14.495000
-8.566600 13.069000 14.566400
-8.535800 13.330800 14.537000
-8.457400 13.505800 14.530000
-8.530200 13.791400 14.457200
-8.523200 14.978600 14.439000
-8.544200 15.134000 14.563600
-8.549800 15.723400 14.593000
-8.852200 12.481000 14.461400
-8.894200 12.744200 14.472600
-8.829800 13.006000 14.532800
-8.761200 13.221600 14.521600
-8.741600 15.897000 14.520200
-8.845200 16.122400 14.461400
-8.821400 16.282000 14.464200
-9.140600 12.558000 14.460000
-9.066400 12.642000 14.450200
-9.031400 13.043800 14.471200
-9.132200 16.104200 14.593000
-9.125200 16.268000 14.506200
-9.378600 12.454400 14.534200
-9.406600 12.710600 14.542600
-9.492000 16.599800 14.520200
-9.436000 17.238200 14.450200
-9.681000 12.222000 14.565000
-9.681000 12.485200 14.553800
-9.587200 12.630800 14.532800
-9.772000 16.728600 14.552400
-9.604000 17.323600 14.453000
-9.693600 17.451000 14.454400
-10.043600 11.555600 14.454400
-9.997400 11.984000 14.560800
-9.938600 12.196800 14.548200
-9.857400 12.404000 14.534200
-9.826600 16.766400 14.527200
-10.008600 16.900800 14.485200
-10.054800 17.243800 14.479600
-10.292800 10.865400 14.461400
-10.257800 11.061400 14.454400
-10.215800 11.348400 14.465600
-10.134600 11.606000 14.453000
-10.136000 11.869200 14.465600
-10.182200 12.156200 14.525800
-10.207400 12.401200 14.566400
-10.106600 16.997400 14.460000
-10.109400 17.186400 14.446000
-10.171000 17.414600 14.559400
-10.239600 17.855600 14.504800
-10.267600 18.011000 14.415200
-10.487400 10.875200 14.460000
-10.606400 10.925600 14.455800
-10.425800 12.014800 14.443200
-10.567200 12.086200 14.467000
-10.505600 17.985800 14.437600
-10.799600 10.893400 14.451600
-10.750600 10.942400 14.458600
-10.822000 12.164600 14.496400
-10.794000 17.956400 14.408200
-10.980200 10.866800 14.464200
-11.092200 10.998400 14.451600
-11.144000 17.894800 14.534200
-11.195800 17.928400 14.516000
-11.421200 10.868200 14.541200
-11.334400 10.984400 14.474000
-11.372200 11.414200 14.443200
-11.433800 11.517800 14.450200
-11.223800 17.914400 14.450200
-11.341400 18.005400 14.499200
-11.632600 10.792600 14.566400
-11.600400 11.039000 14.437600
-11.635400 11.370800 14.457200
-11.485600 11.487000 14.441800
-11.562600 18.134200 14.483800
-11.697000 18.281200 14.514600
-11.957400 7.425600 14.346600
-11.942000 10.557400 14.562200
-11.810400 10.675000 14.558000
-11.942000 11.141200 14.458600
-11.855200 11.221000 14.447400
-11.844000 18.398800 14.513200
-11.968600 18.526200 14.514600
-12.196800 7.243600 14.394200
-12.173000 7.378000 14.392800
-12.283600 8.086400 14.408200
-12.160400 8.176000 14.401200
-12.220600 9.954000 14.464200
-12.269600 10.236800 14.462800
-12.163200 10.420200 14.513200
-12.112800 11.069800 14.467000
-12.182800 18.697000 14.462800
-12.205200 19.038600 14.471200
-12.500600 7.404600 14.476800
-12.398400 8.037400 14.468400
-12.528600 8.246000 14.489400
-12.420800 8.447600 14.363400
-12.461400 10.029600 14.454400
-12.465600 10.094000 14.486600
-12.499200 18.977000 14.499200
-12.751200 7.169400 14.345200
-12.601400 7.673400 14.465600
-12.605600 8.247400 14.377400
-12.714800 9.965200 14.531400
-12.782000 19.194000 14.546800
-12.882800 7.196000 14.346600
-13.045200 9.718800 14.563600
-12.938800 9.854600 14.566400
-12.957000 19.289200 14.506200
-13.050800 19.406800 14.524400
-13.405000 9.031400 14.474000
-13.388200 9.459800 14.552400
-13.251000 9.581600 14.565000
-13.218800 19.520200 14.474000
-13.405000 19.691000 14.493600
-13.426000 20.029800 14.482400
-13.644400 8.345400 14.457200
-13.606600 8.538600 14.469800
-13.559000 8.827000 14.458600
-13.500200 9.100000 14.454400
-13.498800 9.347800 14.453000
-13.533800 9.562000 14.566400
-13.461000 19.741400 14.510400
-13.490400 20.081600 14.460000
-13.553400 20.298600 14.464200
-13.571600 20.470800 14.581800
-13.858600 8.352400 14.455800
-13.802600 9.487800 14.465600
-13.899200 9.688000 14.465600
-13.801200 9.877000 14.461400
-14.149800 8.370600 14.448800
-14.123200 8.407000 14.457200
-14.082600 9.408000 14.448800
-14.126000 9.646000 14.468400
-14.351400 8.344000 14.467000
-14.467600 8.468600 14.469800
-14.357000 9.100000 14.341000
-14.674800 6.851600 14.532800
-14.837200 8.386000 14.577600
-14.701400 8.472800 14.483800
-14.763000 9.021600 14.464200
-14.989800 8.288000 14.565000
-14.877800 8.470000 14.485200
-14.980000 8.863400 14.450200
-15.306200 8.055600 14.559400
-15.185800 8.167600 14.551000
-15.194200 8.731800 14.464200
-15.586200 7.449400 14.457200
-15.638000 7.716800 14.462800
-15.524600 7.905800 14.513200
-15.877400 7.532000 14.451600
-15.855000 7.579600 14.465600
-15.786400 7.910000 14.492200
-16.032800 7.505400 14.451600
-16.461200 7.180600 14.560800
-16.275000 7.281400 14.598600
-16.644600 6.340600 14.458600
-16.728600 6.578600 14.451600
-16.766400 6.900600 14.469800
-16.564800 7.182000 14.538400
-16.678200 7.301000 14.587400
-16.959600 5.861800 14.457200
-16.903600 5.999000 14.461400
-16.843400 6.286000 14.460000
-16.825200 6.588400 14.458600
-16.823800 6.848800 14.451600
-16.962400 7.200200 14.511800
-17.106600 5.874400 14.450200
-17.228400 5.906600 14.453000
-17.138800 6.991600 14.467000
-17.229800 7.067200 14.448800
-17.606400 5.852000 14.467000
-17.512600 5.924800 14.465600
-17.662400 5.857600 14.441800
-17.777200 5.959800 14.443200
-18.039000 6.003200 14.492200
-18.058600 6.480600 14.523000
-18.359600 5.789000 14.569200
-18.264400 5.971000 14.570600
-18.677400 5.555200 14.565000
-18.552800 5.675600 14.569200
-18.484200 5.971000 14.598600
-18.879000 4.979800 14.458600
-18.923800 5.174400 14.453000
-18.879000 5.401200 14.482400
-18.890200 5.674200 14.584600
-19.313000 5.024600 14.593000
-19.194000 5.107200 14.461400
-19.094600 5.404000 14.469800
-19.490800 4.947600 14.570600
-19.489400 5.178600 14.475400
-19.320000 5.324200 14.545400
-19.808600 4.695600 14.573400
-19.790400 4.939200 14.482400
-19.674200 5.091800 14.472600
-20.151600 3.858400 14.479600
-20.088600 4.040400 14.464200
-20.120800 4.366600 14.460000
-20.035400 4.597600 14.506200
-19.993400 4.849600 14.472600
-20.279000 3.348800 14.450200
-20.256600 3.472000 14.460000
-20.183800 3.753400 14.464200
-20.162800 4.167800 14.495000
-20.200600 4.319000 14.485200
-20.232800 4.671800 14.465600
-20.582800 3.411800 14.455800
-20.963600 3.346000 14.454400
-20.855800 3.432800 14.469800
-21.162400 3.501400 14.461400
-21.285600 3.511200 14.555200
-5.840800 13.949600 14.742800
-5.877200 14.221200 14.797400
-5.874400 14.427000 14.752600
-5.868800 14.627200 14.755400
-5.990600 13.939800 14.731600
-5.885600 14.124600 14.726000
-5.882800 14.364000 14.689600
-6.063400 14.673400 14.717600
-6.301400 13.939800 14.742800
-6.302800 14.676200 14.751200
-6.587000 13.945400 14.738600
-6.587000 14.683200 14.731600
-6.679400 14.910000 14.790400
-6.925800 13.398000 14.738600
-6.899200 13.578600 14.741400
-6.848800 13.858600 14.737200
-6.760600 14.688800 14.808600
-6.855800 15.031800 14.733000
-6.875400 15.209600 14.728800
-7.113400 13.402200 14.744200
-7.222600 13.448400 14.720400
-7.431200 13.421800 14.734400
-7.414400 13.462400 14.738600
-7.408800 15.227800 14.755400
-7.618800 13.393800 14.742800
-7.735000 13.517000 14.730200
-7.749000 15.183000 14.825400
-8.031800 13.371400 14.754000
-7.931000 13.493200 14.714800
-8.016400 14.070000 14.621000
-8.066800 14.630000 14.717600
-7.890400 15.190000 14.776400
-8.337000 13.122200 14.773600
-8.233400 13.249600 14.727400
-8.237600 13.538000 14.616800
-8.290800 13.874000 14.612600
-8.141000 14.660800 14.723200
-8.241800 15.475600 14.769400
-8.642200 12.863200 14.751200
-8.535800 13.006000 14.738600
-8.502200 13.256600 14.619600
-8.458800 13.788600 14.632200
-8.502200 14.954800 14.738600
-8.549800 15.512000 14.794600
-8.619800 15.779400 14.758200
-8.846600 12.485200 14.744200
-8.841000 12.759600 14.740000
-8.726200 12.910800 14.633600
-8.755600 15.911000 14.801600
-8.856400 16.128000 14.735800
-8.813000 16.277800 14.717600
-9.136400 12.524400 14.738600
-9.055200 12.623800 14.681200
-9.126600 15.946000 14.861800
-9.153200 16.090200 14.758200
-9.126600 16.331000 14.738600
-9.466800 12.285000 14.755400
-9.354800 12.397000 14.726000
-9.368800 12.734400 14.625200
-9.346400 16.160200 14.790400
-9.403800 16.326800 14.712000
-9.770600 12.026000 14.755400
-9.647400 12.170200 14.735800
-9.637600 12.472600 14.622400
-9.636200 16.401000 14.800200
-9.679600 16.692200 14.723200
-9.626400 17.334800 14.604200
-9.748200 17.495800 14.626600
-10.045000 11.555600 14.741400
-9.942800 11.943400 14.744200
-9.836400 12.082000 14.661600
-9.819600 12.355000 14.616800
-9.816800 16.788800 14.735800
-9.941400 16.896600 14.738600
-10.052000 17.250800 14.728800
-10.284400 10.868200 14.737200
-10.259200 11.057200 14.735800
-10.213000 11.349800 14.747000
-10.136000 11.606000 14.735800
-10.133200 11.817400 14.731600
-10.109400 17.028200 14.728800
-10.120600 17.189200 14.731600
-10.171000 17.458000 14.763800
-10.474800 10.875200 14.741400
-10.603600 10.925600 14.728800
-10.799600 10.894800 14.731600
-10.750600 10.945200 14.738600
-10.981600 10.865400 14.744200
-11.097800 10.995600 14.738600
-11.391800 10.858400 14.765200
-11.305000 10.967600 14.709200
-11.412800 11.509400 14.681200
-11.327400 18.011000 14.787600
-11.604600 8.633800 14.728800
-11.706800 10.599400 14.786200
-11.596200 10.731000 14.723200
-11.754400 11.015200 14.608400
-11.610200 11.362400 14.674200
-11.524800 18.170600 14.800200
-11.673200 18.285400 14.751200
-12.006400 10.336200 14.772200
-11.898600 10.490200 14.731600
-11.775400 10.649800 14.636400
-11.930800 11.125800 14.667200
-11.809000 11.232200 14.646200
-11.832800 18.422600 14.740000
-11.963000 18.534600 14.734400
-12.128200 8.702400 14.761000
-12.224800 9.952600 14.737200
-12.203800 10.238200 14.738600
-12.087600 10.411800 14.639200
-12.117000 11.058600 14.649000
-12.110000 18.664800 14.741400
-12.196800 19.012000 14.793200
-12.241600 19.065200 14.731600
-12.500600 9.982000 14.755400
-12.441800 10.091200 14.696600
-12.441800 18.950400 14.714800
-12.602800 7.555800 14.681200
-12.664400 7.562800 14.663000
-12.811400 9.753800 14.789000
-12.717600 9.888200 14.709200
-12.782000 19.206600 14.741400
-13.108200 9.490600 14.756800
-13.017200 9.641800 14.735800
-12.884200 9.807000 14.663000
-12.895400 19.286400 14.679800
-12.959800 19.348000 14.768000
-13.410600 9.014600 14.755400
-13.301400 9.417800 14.752600
-13.207600 9.556400 14.654600
-13.349000 19.671400 14.808600
-13.419000 20.017200 14.784800
-13.644400 8.344000 14.735800
-13.609400 8.537200 14.744200
-13.560400 8.828400 14.748400
-13.496000 9.094400 14.728800
-13.493200 9.305800 14.717600
-13.452600 19.842200 14.678400
-13.496000 20.087200 14.754000
-13.556200 20.307000 14.748400
-13.566000 20.447000 14.786200
-13.862800 8.351000 14.738600
-13.881000 9.514400 14.609800
-13.904800 9.695000 14.665800
-13.792800 9.864400 14.660200
-14.142800 8.370600 14.745600
-14.120400 8.407000 14.714800
-14.159600 9.310000 14.867400
-14.103600 9.675400 14.692400
-14.543200 7.394800 14.766600
-14.488600 7.753200 14.714800
-14.410200 7.992600 14.758200
-14.359800 8.346800 14.741400
-14.476000 8.471400 14.751200
-14.326200 8.919400 14.856200
-14.768600 6.806800 14.709200
-14.740600 7.121800 14.703600
-14.561400 7.532000 14.671400
-14.747600 8.337000 14.770800
-14.691600 8.439200 14.693800
-14.792400 8.982400 14.678400
-14.964600 6.904800 14.825400
-14.978600 7.105000 14.786200
-14.898800 7.352800 14.831000
-15.073800 8.079400 14.777800
-14.957600 8.220800 14.726000
-14.998200 8.856400 14.677000
-15.362200 7.800800 14.735800
-15.265600 7.982800 14.740000
-15.136800 8.143800 14.649000
-15.190000 8.737400 14.663000
-15.575000 7.478800 14.713400
-15.582000 7.725200 14.744200
-15.467200 7.882000 14.681200
-15.855000 7.487200 14.755400
-15.766800 7.579600 14.692400
-16.206400 7.231000 14.800200
-16.116800 7.309400 14.815600
-16.494800 6.963600 14.735800
-16.345000 7.200200 14.678400
-16.641800 6.343400 14.745600
-16.725800 6.570200 14.737200
-16.686600 6.897800 14.740000
-16.576000 7.043400 14.675600
-16.737000 7.326200 14.616800
-16.958200 5.859000 14.745600
-16.905000 6.001800 14.738600
-16.842000 6.291600 14.741400
-16.830800 6.644400 14.748400
-16.814000 6.816600 14.713400
-17.071600 7.256200 14.609800
-17.109400 5.873000 14.772200
-17.231200 5.905200 14.735800
-17.203200 7.075600 14.628000
-17.600800 5.854800 14.702200
-17.505600 5.923400 14.744200
-17.661000 5.859000 14.740000
-17.827600 5.978000 14.741400
-18.114600 5.818400 14.782000
-18.026400 5.952800 14.710600
-18.071200 6.546400 14.684000
-18.419800 5.567800 14.783400
-18.319000 5.724600 14.721800
-18.624200 5.478200 14.742800
-18.529000 5.622400 14.654600
-18.866400 4.971400 14.741400
-18.901400 5.196800 14.745600
-18.820200 5.380200 14.695200
-18.800600 5.838000 14.621000
-18.764200 5.927600 14.647600
-19.237400 4.979800 14.784800
-19.177200 5.082000 14.703600
-19.562200 4.734800 14.787600
-19.440400 4.886000 14.721800
-19.453000 5.212200 14.630800
-19.808600 4.450600 14.761000
-19.756800 4.632600 14.744200
-19.709200 4.831400 14.647600
-20.153000 3.851400 14.752600
-20.085800 4.047400 14.741400
-20.052200 4.393200 14.755400
-19.948600 4.536000 14.695200
-19.906600 4.918200 14.601400
-20.267800 3.348800 14.735800
-20.267800 3.463600 14.749800
-20.186600 3.756200 14.749800
-20.169800 4.179000 14.808600
-20.195000 4.265800 14.693800
-20.580000 3.417400 14.738600
-20.969200 3.344600 14.765200
-20.858600 3.434200 14.742800
-21.165200 3.483200 14.747000
-21.294000 3.453800 14.766600
-5.840800 13.949600 15.025600
-5.877200 14.198800 15.022800
-5.874400 14.424200 15.015800
-5.870200 14.625800 15.032600
-5.992000 13.939800 15.024200
-5.882800 14.099400 14.990600
-5.881400 14.393400 15.092800
-6.048000 14.695800 15.053600
-6.301400 13.939800 15.018600
-6.301400 14.680400 15.021400
-6.575800 13.946800 15.017200
-6.577200 14.681800 15.004600
-6.718600 14.919800 15.105400
-6.934200 13.395200 15.010200
-6.899200 13.581400 15.029800
-6.832000 13.861400 15.031200
-6.783000 14.687400 15.095600
-6.853000 15.024800 15.020000
-6.878200 15.205400 15.028400
-7.127400 13.403600 15.024200
-7.228200 13.445600 15.008800
-7.110600 15.258600 15.070400
-7.446600 13.423200 15.020000
-7.394800 13.463800 15.022800
-7.448000 15.243200 14.948600
-7.617400 13.398000 15.018600
-7.735000 13.514200 15.017200
-7.565600 15.240400 15.137600
-8.036000 13.363000 15.020000
-7.900200 13.465200 15.027000
-7.873600 15.176000 14.966800
-8.356600 13.125000 15.025600
-8.218000 13.230000 15.017200
-8.142400 15.388800 15.014400
-8.282400 15.505000 15.029800
-8.670200 12.863200 15.055000
-8.535800 12.990600 15.022800
-8.528800 14.924000 14.965400
-8.533000 15.262800 14.964000
-8.474200 15.583400 14.999000
-8.568000 15.761200 15.062000
-8.470000 17.533600 15.041000
-8.502200 17.731000 15.036800
-8.853600 12.482400 15.022800
-8.835400 12.763800 15.020000
-8.687000 12.884200 15.024200
-8.745800 15.898400 15.056400
-8.852200 16.129400 15.004600
-8.827000 16.291800 14.986400
-9.160200 12.510400 15.015800
-8.990800 12.612600 15.010200
-9.161600 14.470400 15.022800
-9.189600 14.665000 15.024200
-9.186800 15.015000 15.025600
-9.137800 15.314600 14.999000
-9.198000 15.436400 14.985000
-9.130800 15.899800 14.983600
-9.157400 16.070600 14.937400
-9.195200 16.255400 14.989200
-9.468200 12.283600 15.021400
-9.336600 12.387200 15.021400
-9.472400 14.231000 14.994800
-9.413600 14.407400 15.010200
-9.370200 14.712600 15.025600
-9.360400 14.975800 15.025600
-9.374400 15.264200 15.028400
-9.378600 15.556800 15.000400
-9.424800 15.778000 15.003200
-9.373000 16.114000 14.964000
-9.791600 12.026000 14.961200
-9.654400 12.149200 15.018600
-9.717400 13.925800 14.992000
-9.702000 14.147000 14.985000
-9.689400 14.403200 14.986400
-9.669800 14.680400 15.024200
-9.647400 14.982800 15.025600
-9.679600 15.248800 15.027000
-9.650200 15.534400 15.028400
-9.662800 15.801800 14.994800
-9.611000 16.156000 15.022800
-9.647400 16.347800 14.978000
-9.734200 16.717400 15.045200
-10.045000 11.554200 15.041000
-9.938600 11.944800 15.024200
-9.811200 12.044200 15.062000
-9.935800 13.874000 14.971000
-9.962400 14.137200 14.971000
-9.815400 16.784600 15.003200
-9.966600 16.905000 15.020000
-10.050600 17.256400 15.001800
-10.287200 10.871000 15.028400
-10.252200 11.061400 15.008800
-10.214400 11.347000 15.021400
-10.136000 11.597600 15.013000
-10.136000 11.802000 15.017200
-10.291400 13.599600 14.966800
-10.179400 13.896400 14.964000
-10.124800 17.035200 15.050800
-10.119200 17.180800 15.006000
-10.179400 17.523800 15.008800
-10.204600 17.689000 15.083000
-10.486000 10.875200 15.010200
-10.599400 10.922800 15.052200
-10.535000 13.368600 14.951400
-10.570000 13.556200 14.965400
-10.484600 13.788600 14.968200
-10.796800 10.893400 15.029800
-10.750600 10.941000 15.018600
-10.854200 13.074600 14.940200
-10.812200 13.319600 14.961200
-10.662400 17.960600 14.924800
-10.977400 10.869600 15.021400
-11.093600 10.987200 15.029800
-11.169200 17.900400 14.931800
-11.435200 10.600800 15.062000
-11.393200 10.836000 15.015800
-11.256000 10.941000 15.029800
-11.390400 18.057200 15.017200
-11.695600 9.692200 15.140400
-11.704000 10.600800 15.015800
-11.569600 10.707200 15.018600
-11.537400 18.177600 15.010200
-11.664800 18.275600 15.024200
-11.788000 9.612400 15.150200
-12.020400 10.337600 15.027000
-11.891600 10.463600 15.020000
-11.830000 18.411400 15.017200
-11.977000 18.537400 15.022800
-12.264000 8.775200 14.885600
-12.219200 9.958200 15.020000
-12.189800 10.241000 15.021400
-12.138000 18.673200 15.007400
-12.188400 19.012000 15.014400
-12.240200 19.054000 15.048000
-12.580400 7.057400 15.085800
-12.503400 9.980600 15.020000
-12.336800 10.085600 14.989200
-12.453000 18.961600 14.985000
-12.824000 9.751000 15.021400
-12.684000 9.863000 15.021400
-12.653200 19.101600 14.979400
-13.143200 9.501800 14.997600
-13.011600 9.615200 15.025600
-13.116600 19.479600 14.961200
-13.409200 9.023000 15.025600
-13.294400 9.408000 15.020000
-13.203400 19.552400 14.971000
-13.357400 19.677000 15.028400
-13.424600 20.007400 15.015800
-13.640200 8.348200 15.020000
-13.609400 8.535800 15.021400
-13.564600 8.824200 15.025600
-13.498800 9.087400 15.018600
-13.480600 9.273600 15.017200
-13.456800 19.770800 15.031200
-13.493200 20.080200 15.008800
-13.550600 20.290200 15.039600
-13.570200 20.475000 14.973800
-13.858600 8.353800 15.021400
-14.134400 8.373400 15.027000
-14.141400 8.405600 15.001800
-14.169400 9.128000 15.020000
-14.210000 9.375800 14.968200
-14.459200 7.779800 14.905200
-14.415800 8.087800 15.074600
-14.357000 8.344000 15.021400
-14.478800 8.458800 15.021400
-14.466200 8.906800 14.917800
-14.442400 9.321200 14.930400
-14.802200 6.897800 14.899600
-14.753200 7.137200 14.934600
-14.599200 7.695800 14.990600
-14.722400 7.938000 14.976600
-14.744800 8.325800 15.022800
-14.630000 8.418200 14.999000
-14.964600 6.881000 14.959800
-15.001000 7.077000 14.985000
-15.066800 8.080800 15.018600
-14.938000 8.192800 15.018600
-15.260000 7.953400 15.025600
-15.542800 7.459200 15.024200
-15.527400 7.751800 15.004600
-15.409800 7.847000 15.035400
-15.913800 7.436800 15.104000
-15.696800 7.575400 15.024200
-16.163000 7.270200 14.908000
-16.076200 7.334600 15.036800
-16.494800 6.986000 15.048000
-16.367400 7.116200 15.017200
-16.643200 6.340600 15.025600
-16.725800 6.573000 15.020000
-16.662800 6.896400 15.015800
-16.531200 7.007000 15.018600
-16.951200 5.856200 15.011600
-16.910600 5.993400 15.018600
-16.842000 6.293000 15.021400
-16.836400 6.599600 15.010200
-16.812600 6.776000 14.993400
-17.115000 5.873000 15.024200
-17.239600 5.909400 15.021400
-17.606400 5.854800 15.029800
-17.514000 5.926200 15.020000
-17.666600 5.866000 15.000400
-17.820600 5.965400 15.027000
-18.111800 5.814200 15.022800
-17.981600 5.927600 15.020000
-18.432400 5.560800 15.004600
-18.307800 5.679800 15.022800
-18.389000 7.212800 15.057800
-18.351200 7.432600 15.060600
-18.606000 5.451600 15.020000
-18.562600 7.421400 15.057800
-18.867800 4.974200 15.022800
-18.890200 5.198200 15.025600
-18.778200 5.332600 15.036800
-19.229000 4.972800 15.028400
-19.118400 5.069400 14.996200
-19.570600 4.732000 15.060600
-19.430600 4.845400 15.013000
-19.863200 4.473000 15.028400
-19.733000 4.615800 15.021400
-20.150200 3.873800 15.013000
-20.083000 4.048800 15.022800
-20.038200 4.387600 15.027000
-19.909400 4.502400 15.010200
-20.266400 3.347400 15.028400
-20.269200 3.460800 15.018600
-20.188000 3.746400 15.035400
-20.161400 4.079600 14.973800
-20.192200 4.243400 14.987800
-20.580000 3.416000 15.014400
-20.965000 3.339000 15.043800
-20.858600 3.431400 15.017200
-21.175000 3.463600 15.018600
-21.289800 3.425800 15.060600
-5.833800 13.948200 15.304200
-5.875800 14.182000 15.294400
-5.871600 14.436800 15.281800
-5.870200 14.625800 15.309800
-5.989200 13.939800 15.295800
-5.884200 14.089600 15.330800
-5.880000 14.338800 15.262200
-5.996200 14.681800 15.333600
-6.302800 13.939800 15.297200
-6.312600 14.677600 15.301400
-6.582800 13.945400 15.297200
-6.584200 14.683200 15.293000
-6.658400 14.897400 15.224400
-6.925800 13.399400 15.291600
-6.903400 13.575800 15.294400
-6.844600 13.855800 15.302800
-6.806800 14.718200 15.300000
-6.855800 15.017800 15.297200
-6.890800 15.218000 15.293000
-7.117600 13.402200 15.304200
-7.229600 13.444200 15.290200
-7.145600 15.241800 15.295800
-7.436800 13.420400 15.284600
-7.399000 13.463800 15.308400
-7.408800 15.230600 15.339200
-7.617400 13.396600 15.301400
-7.743400 13.512800 15.307000
-7.722400 15.216600 15.267800
-8.036000 13.364400 15.302800
-7.907200 13.461000 15.295800
-8.104600 15.353800 15.321000
-8.351000 13.122200 15.307000
-8.212400 13.231400 15.301400
-8.139600 15.388800 15.260800
-8.278200 15.500800 15.304200
-8.649200 12.875800 15.399400
-8.541400 12.985000 15.298600
-8.439200 15.633800 15.239800
-8.486800 15.685600 15.172600
-8.855000 12.482400 15.305600
-8.831200 12.761000 15.298600
-8.755600 15.909600 15.308400
-8.857800 16.121000 15.293000
-8.828400 16.283400 15.287400
-9.150400 12.510400 15.301400
-8.992200 12.616800 15.326600
-9.469600 12.279400 15.300000
-9.333800 12.385800 15.295800
-9.780400 12.030200 15.315400
-9.658600 12.143600 15.297200
-9.678200 16.676800 15.308400
-10.050600 11.554200 15.319600
-9.933000 11.939200 15.301400
-9.829400 16.800000 15.419000
-9.955400 16.902200 15.307000
-10.050600 17.246600 15.288800
-10.285800 10.866800 15.309800
-10.257800 11.058600 15.293000
-10.210200 11.348400 15.294400
-10.141600 11.606000 15.298600
-10.131800 11.799200 15.291600
-10.129000 17.045000 15.267800
-10.122000 17.179400 15.295800
-10.178000 17.519600 15.291600
-10.217200 17.778600 15.307000
-10.236800 17.932600 15.419000
-10.495800 10.875200 15.300000
-10.635800 10.922800 15.368600
-10.560200 17.967600 15.228600
-10.879400 8.936200 15.315400
-10.750600 9.055200 15.398000
-10.803800 10.890600 15.305600
-10.756200 10.936800 15.293000
-10.792600 17.945200 15.252400
-10.941000 8.929200 15.295800
-10.941000 9.031400 15.438600
-10.985800 10.873800 15.301400
-11.104800 10.990000 15.311200
-10.978800 18.030600 15.339200
-11.445000 10.493000 15.175400
-11.386200 10.843000 15.298600
-11.257400 10.941000 15.293000
-11.681600 9.055200 15.368600
-11.607400 10.343200 15.279000
-11.713800 10.593800 15.309800
-11.572400 10.704400 15.295800
-11.545800 18.177600 15.283200
-11.671800 18.277000 15.304200
-11.904200 8.876000 15.398000
-12.012000 10.340400 15.342000
-11.895800 10.458000 15.300000
-11.832800 18.411400 15.304200
-11.960200 18.526200 15.276200
-12.216400 9.956800 15.297200
-12.184200 10.241000 15.304200
-12.122600 18.669000 15.270600
-12.201000 18.970000 15.239800
-12.233200 19.052600 15.221600
-12.492200 9.976400 15.307000
-12.342400 10.087000 15.309800
-12.468400 18.984000 15.249600
-12.639200 7.191800 15.214600
-12.824000 9.756600 15.301400
-12.689600 9.861600 15.302800
-12.773600 19.201000 15.259400
-13.129200 9.494800 15.301400
-13.010200 9.619400 15.301400
-12.896800 19.294800 15.244000
-12.978000 19.362000 15.279000
-13.403600 9.024400 15.312600
-13.286000 9.413600 15.300000
-13.200600 19.551000 15.263600
-13.388200 19.692400 15.321000
-13.423200 19.999000 15.280400
-13.647200 8.346800 15.307000
-13.610800 8.540000 15.297200
-13.566000 8.825600 15.300000
-13.497400 9.088800 15.301400
-13.483400 9.273600 15.301400
-13.463800 19.749800 15.336400
-13.496000 20.083000 15.300000
-13.554800 20.315400 15.291600
-13.568800 20.463800 15.368600
-13.867000 8.356600 15.302800
-14.148400 8.373400 15.293000
-14.128800 8.407000 15.293000
-14.358400 8.344000 15.300000
-14.462000 8.467200 15.298600
-14.467600 8.818600 15.305600
-14.744800 8.325800 15.300000
-14.621600 8.430800 15.286000
-14.589400 8.874600 15.218800
-14.599200 9.077600 15.286000
-15.073800 8.073800 15.305600
-14.940800 8.187200 15.297200
-15.377600 7.812000 15.298600
-15.262800 7.950600 15.305600
-15.618400 7.387800 15.389600
-15.493800 7.761600 15.248200
-15.411200 7.845600 15.251000
-15.892800 7.459200 15.340600
-15.702400 7.574000 15.274800
-16.188200 7.242200 15.295800
-15.989400 7.396200 15.207600
-16.482200 6.991600 15.284600
-16.374400 7.107800 15.298600
-16.651600 6.344800 15.290200
-16.727200 6.577200 15.295800
-16.657200 6.900600 15.298600
-16.528400 7.004200 15.242600
-16.966600 5.857600 15.308400
-16.912000 5.989200 15.300000
-16.844800 6.284600 15.298600
-16.833600 6.581400 15.276200
-16.814000 6.773200 15.291600
-17.112200 5.875800 15.304200
-17.241000 5.910800 15.300000
-17.609200 5.853400 15.356000
-17.509800 5.929000 15.298600
-17.662400 5.846400 15.277600
-17.802400 5.952800 15.302800
-18.110400 5.818400 15.304200
-17.973200 5.931800 15.294400
-18.425400 5.572000 15.302800
-18.302200 5.682600 15.294400
-18.755800 5.101600 15.378400
-18.603200 5.454400 15.295800
-18.865000 4.972800 15.305600
-18.888800 5.202400 15.294400
-18.776800 5.341000 15.319600
-19.233200 4.975600 15.298600
-19.112800 5.065200 15.302800
-19.559400 4.722200 15.297200
-19.441800 4.845400 15.298600
-19.874400 4.459000 15.293000
-19.737200 4.608800 15.301400
-20.153000 3.858400 15.293000
-20.080200 4.050200 15.305600
-20.035400 4.389000 15.298600
-19.906600 4.501000 15.297200
-20.279000 3.350200 15.314000
-20.265000 3.469200 15.288800
-20.183800 3.749200 15.297200
-20.162800 4.079600 15.305600
-20.183800 4.254600 15.251000
-20.587000 3.418800 15.302800
-20.962200 3.340400 15.339200
-20.857200 3.434200 15.288800
-21.001400 3.354400 15.193600
-21.173600 3.466400 15.302800
-21.285600 3.453800 15.197800
-5.846400 13.951000 15.580000
-5.877200 14.214200 15.589800
-5.874400 14.406000 15.588400
-5.867400 14.635600 15.556200
-5.986400 13.941200 15.575800
-5.885600 14.116200 15.574400
-5.881400 14.305200 15.575800
-6.057800 14.679000 15.581400
-6.293000 13.942600 15.578600
-6.305600 14.680400 15.581400
-6.574400 13.949600 15.575800
-6.574400 14.686000 15.587000
-6.703200 14.905800 15.484800
-6.932800 13.400800 15.577200
-6.904800 13.587000 15.577200
-6.839000 13.872600 15.574400
-6.804000 14.722400 15.582800
-6.858600 15.023400 15.587000
-6.895000 15.219400 15.574400
-7.105000 13.402200 15.571600
-7.219800 13.448400 15.598200
-7.121800 15.244600 15.587000
-7.414400 13.423200 15.567400
-7.411600 13.461000 15.588400
-7.414400 15.225000 15.517000
-7.621600 13.395200 15.587000
-7.740600 13.511400 15.577200
-7.665000 15.226400 15.584200
-8.030400 13.368600 15.578600
-7.901600 13.468000 15.588400
-8.078000 15.351000 15.525400
-8.349600 13.126400 15.575800
-8.212400 13.232800 15.575800
-8.177400 15.433600 15.554800
-8.659000 12.867400 15.585600
-8.533000 12.992000 15.581400
-8.457400 15.653400 15.585600
-8.577800 15.757000 15.584200
-8.850800 12.478200 15.589800
-8.836800 12.761000 15.580000
-8.685600 12.882800 15.585600
-8.755600 15.912400 15.566000
-8.863400 16.112600 15.581400
-8.845200 16.286200 15.589800
-9.160200 12.507600 15.582800
-8.990800 12.611200 15.575800
-9.035600 16.170000 15.676600
-9.462600 12.283600 15.591200
-9.332400 12.384400 15.574400
-9.795800 12.014800 15.508600
-9.657200 12.142200 15.578600
-9.689400 16.688000 15.585600
-10.050600 11.552800 15.598200
-9.928800 11.942000 15.581400
-9.801400 16.777600 15.482000
-9.954000 16.903600 15.582800
-10.054800 17.255000 15.557600
