ply
format ascii 1.0
comment VCGLIB generated
element vertex 1485
property float x
property float y
property float z
property uchar red
property uchar green
property uchar blue
property uchar alpha
element face 0
property list uchar int vertex_indices
end_header
4.474 12.079 3.097 35 32 20 255 
4.699 12.035 3.103 36 32 23 255 
4.851 12.042 3.099 43 42 32 255 
5.08 12.099 3.119 59 62 50 255 
5.219 12.039 3.145 32 29 18 255 
4.166 12.31 3.1 43 37 25 255 
4.216 12.302 3.098 41 38 26 255 
5.058 12.296 3.087 37 34 22 255 
4.19 12.514 3.104 44 39 27 255 
4.227 12.501 3.102 42 38 24 255 
4.977 12.436 3.129 34 30 22 255 
4.169 12.642 3.098 81 84 70 255 
4.273 12.718 3.103 85 84 75 255 
4.198 12.828 3.048 78 86 81 255 
4.355 12.898 3.08 68 72 71 255 
4.518 12.906 3.102 86 88 76 255 
4.197 13.199 3.003 64 75 77 255 
4.301 13.135 3.106 53 58 54 255 
4.521 13.075 3.158 51 55 48 255 
4.671 13.05 3.063 93 100 87 255 
3.583 13.396 3.091 38 27 27 255 
4.148 13.342 3.093 57 68 68 255 
4.282 13.277 3.126 56 64 60 255 
3.532 13.494 3.103 95 89 82 255 
3.68 13.547 3.101 60 53 49 255 
3.923 13.571 3.092 78 80 71 255 
4.08 13.49 3.105 68 75 73 255 
4.263 13.47 3.17 44 47 45 255 
3.558 13.708 3.1 64 66 64 255 
3.669 13.685 3.085 104 100 94 255 
3.904 13.686 3.1 54 48 44 255 
4.061 13.711 3.129 56 48 45 255 
3.573 13.811 3.13 62 87 80 255 
3.661 13.91 3.095 54 60 61 255 
3.908 13.879 3.117 109 103 97 255 
3.543 14.135 3.087 65 75 75 255 
3.65 14.098 3.115 66 75 73 255 
3.835 14.027 3.198 23 21 16 255 
2.73 14.394 3.105 36 26 22 255 
2.892 14.366 3.087 35 28 25 255 
3.075 14.391 3.104 40 32 30 255 
3.366 14.346 3.078 59 64 63 255 
3.498 14.297 3.113 60 68 67 255 
3.66 14.274 3.176 42 45 40 255 
2.368 14.533 3.094 41 31 28 255 
2.423 14.503 3.156 39 30 25 255 
2.69 14.442 3.093 33 24 23 255 
2.911 14.421 3.073 34 25 22 255 
3.073 14.453 3.1 36 27 26 255 
3.281 14.506 3.098 87 82 76 255 
3.496 14.498 3.176 60 59 55 255 
2.367 14.649 3.026 42 34 31 255 
2.429 14.715 3.116 41 35 33 255 
3.32 14.613 3.107 58 51 51 255 
3.409 14.618 3.125 117 112 105 255 
2.397 14.988 3.08 131 119 112 255 
2.43 14.92 3.106 124 114 107 255 
2.394 15.007 3.113 131 119 112 255 
2.466 15.115 3.096 99 93 89 255 
2.465 15.208 3.126 21 24 25 255 
7.543 3.987 3.3 48 42 43 255 
7.621 3.963 3.336 52 50 44 255 
7.394 4.186 3.229 31 30 32 255 
7.507 4.093 3.299 52 50 47 255 
7.614 4.081 3.31 46 45 43 255 
9.966 4.171 3.305 33 24 24 255 
10.117 4.152 3.3 33 22 20 255 
10.275 4.146 3.274 33 24 20 255 
10.43 4.147 3.345 13 10 13 255 
7.337 4.316 3.291 47 43 40 255 
7.429 4.243 3.327 60 53 47 255 
7.729 4.282 3.251 36 36 36 255 
7.856 4.369 3.247 37 38 40 255 
9.967 4.307 3.295 42 30 29 255 
10.066 4.202 3.336 31 26 21 255 
10.488 4.316 3.207 26 19 21 255 
7.16 4.545 3.28 42 38 35 255 
7.251 4.465 3.318 54 46 40 255 
7.557 4.531 3.212 16 19 20 255 
7.702 4.538 3.215 17 16 15 255 
7.934 4.445 3.28 38 41 42 255 
8.075 4.47 3.229 41 41 40 255 
9.972 4.505 3.274 43 32 32 255 
10.48 4.538 3.275 33 22 22 255 
6.972 4.767 3.236 32 33 35 255 
7.073 4.692 3.31 51 44 38 255 
7.211 4.652 3.267 37 39 34 255 
7.44 4.738 3.215 19 15 14 255 
7.759 4.662 3.214 15 16 16 255 
7.88 4.727 3.216 17 14 13 255 
8.008 4.794 3.254 16 16 14 255 
8.354 4.657 3.238 41 36 36 255 
8.497 4.762 3.245 47 41 37 255 
9.975 4.706 3.268 30 23 24 255 
10.481 4.704 3.319 42 31 29 255 
6.789 4.997 3.223 26 34 32 255 
6.91 4.9 3.304 47 41 36 255 
7.033 4.871 3.289 39 34 33 255 
7.518 4.875 3.213 18 15 14 255 
7.678 4.947 3.216 18 15 15 255 
7.96 4.846 3.213 17 13 13 255 
8.024 4.86 3.216 17 13 12 255 
8.246 4.973 3.254 17 15 14 255 
8.696 4.914 3.25 40 33 29 255 
9.562 4.957 3.252 31 24 24 255 
9.678 4.883 3.266 29 22 20 255 
9.931 4.843 3.285 26 20 19 255 
10.494 4.858 3.289 43 33 32 255 
10.703 4.908 3.303 44 32 33 255 
10.877 4.945 3.29 39 30 27 255 
6.595 5.195 3.245 46 50 47 255 
6.717 5.121 3.299 38 36 34 255 
6.833 5.047 3.318 45 38 32 255 
7.092 5.079 3.208 19 21 21 255 
7.319 5.112 3.216 18 16 17 255 
7.443 5.159 3.222 16 14 15 255 
7.743 5.051 3.219 15 12 13 255 
7.899 5.12 3.22 17 14 14 255 
8.061 5.069 3.212 23 18 19 255 
8.342 5.055 3.249 18 14 13 255 
8.44 5.139 3.247 25 24 18 255 
8.915 5.081 3.243 27 21 25 255 
9.028 5.156 3.254 24 18 19 255 
9.552 5.122 3.22 29 31 31 255 
10.883 5.044 3.299 43 37 35 255 
6.558 5.343 3.279 43 39 35 255 
6.651 5.264 3.316 51 44 39 255 
6.866 5.222 3.23 18 16 20 255 
7.095 5.339 3.214 17 13 15 255 
7.467 5.219 3.225 18 16 17 255 
7.683 5.36 3.228 18 17 18 255 
7.945 5.263 3.21 13 10 10 255 
8.11 5.312 3.22 15 14 12 255 
8.257 5.388 3.25 18 12 13 255 
8.528 5.206 3.237 32 42 31 255 
8.692 5.316 3.257 28 21 23 255 
9.136 5.28 3.266 18 20 23 255 
9.558 5.234 3.222 28 25 26 255 
9.624 5.34 3.228 31 32 32 255 
10.877 5.384 3.305 31 26 26 255 
6.382 5.567 3.256 37 33 32 255 
6.473 5.489 3.312 49 43 37 255 
6.664 5.483 3.25 22 24 21 255 
6.905 5.592 3.212 36 23 26 255 
7.131 5.415 3.207 14 12 12 255 
7.285 5.476 3.237 18 14 15 255 
7.486 5.539 3.221 13 13 12 255 
7.725 5.45 3.216 16 16 17 255 
7.866 5.531 3.226 19 18 20 255 
8.146 5.474 3.217 13 10 10 255 
8.35 5.589 3.253 12 8 9 255 
8.412 5.497 3.26 18 12 13 255 
8.912 5.476 3.267 27 23 32 255 
9.583 5.481 3.229 17 13 15 255 
9.705 5.532 3.23 22 17 19 255 
10.78 5.576 3.294 25 21 22 255 
10.881 5.474 3.306 30 20 20 255 
6.319 5.684 3.313 44 42 39 255 
6.487 5.647 3.291 36 34 26 255 
6.659 5.766 3.27 37 35 35 255 
6.899 5.631 3.213 16 16 17 255 
7.084 5.722 3.227 21 16 19 255 
7.488 5.654 3.228 16 12 13 255 
7.642 5.747 3.245 12 12 11 255 
7.953 5.639 3.213 22 20 21 255 
8.114 5.694 3.228 21 19 19 255 
8.247 5.702 3.226 14 13 14 255 
8.573 5.631 3.239 17 12 20 255 
8.71 5.734 3.255 16 12 17 255 
9.141 5.653 3.265 26 28 28 255 
9.26 5.742 3.264 20 15 18 255 
9.882 5.7 3.243 17 15 16 255 
10.55 5.762 3.281 29 21 21 255 
10.675 5.664 3.297 29 22 20 255 
6.155 5.94 3.34 51 43 36 255 
6.238 5.849 3.325 46 39 33 255 
6.569 5.951 3.305 35 29 30 255 
6.735 5.875 3.249 24 24 23 255 
6.878 5.943 3.25 25 25 23 255 
7.109 5.882 3.238 16 14 15 255 
7.306 5.902 3.234 45 52 43 255 
7.545 5.884 3.224 13 12 13 255 
7.706 5.895 3.229 13 12 12 255 
7.887 5.935 3.253 12 11 11 255 
8.289 5.855 3.222 24 25 27 255 
8.492 5.956 3.262 21 22 23 255 
8.843 5.866 3.256 27 26 27 255 
9.363 5.83 3.259 14 10 14 255 
9.513 5.933 3.274 16 11 15 255 
9.654 5.918 3.26 5 9 9 255 
9.924 5.913 3.247 11 8 9 255 
10.029 5.81 3.229 21 16 18 255 
10.497 5.811 3.398 26 25 29 255 
5.975 6.169 3.351 50 42 36 255 
6.068 6.077 3.33 43 36 31 255 
6.35 6.08 3.281 31 23 17 255 
6.473 6.095 3.294 30 24 17 255 
6.701 6.091 3.307 38 34 34 255 
6.963 6.08 3.284 31 30 30 255 
7.103 6.122 3.257 19 20 19 255 
7.248 6.093 3.237 18 17 16 255 
7.499 6.052 3.237 51 57 50 255 
7.643 6.151 3.249 43 44 44 255 
7.933 6.137 3.233 13 12 13 255 
8.111 6.099 3.251 15 11 11 255 
8.296 6.189 3.243 17 25 25 255 
8.567 6.029 3.275 25 23 25 255 
8.707 6.113 3.265 28 28 33 255 
9.132 6.09 3.262 25 25 28 255 
9.275 6.115 3.329 18 17 19 255 
9.741 6.129 3.265 10 8 9 255 
9.853 6.076 3.223 8 8 9 255 
5.772 6.373 3.289 58 53 47 255 
5.891 6.292 3.339 43 39 35 255 
6.071 6.293 3.288 29 25 19 255 
6.304 6.291 3.289 29 22 18 255 
6.462 6.298 3.301 31 20 16 255 
6.689 6.273 3.31 28 19 14 255 
6.833 6.316 3.313 26 17 14 255 
7.148 6.24 3.245 19 15 14 255 
7.303 6.292 3.26 18 17 17 255 
7.444 6.364 3.271 15 15 17 255 
7.721 6.238 3.238 46 43 41 255 
7.866 6.316 3.251 25 22 23 255 
8.017 6.374 3.25 16 15 15 255 
8.321 6.267 3.247 24 22 22 255 
8.448 6.304 3.241 31 31 31 255 
8.794 6.203 3.278 27 32 32 255 
8.912 6.275 3.273 27 29 32 255 
9.107 6.321 3.332 20 18 18 255 
9.372 6.228 3.271 15 13 15 255 
9.499 6.352 3.264 11 10 12 255 
9.695 6.264 3.235 8 6 8 255 
5.595 6.594 3.234 59 69 56 255 
5.712 6.51 3.288 82 79 71 255 
5.878 6.481 3.276 57 54 49 255 
6.049 6.53 3.253 34 31 29 255 
6.298 6.504 3.284 26 18 14 255 
6.512 6.517 3.287 22 16 14 255 
6.904 6.42 3.321 20 17 14 255 
7.086 6.401 3.318 19 15 13 255 
7.528 6.472 3.266 17 14 14 255 
7.668 6.559 3.282 14 12 13 255 
7.923 6.467 3.239 28 28 27 255 
8.136 6.526 3.25 19 16 17 255 
8.277 6.537 3.249 22 25 27 255 
8.489 6.437 3.25 19 19 24 255 
8.691 6.519 3.286 26 25 27 255 
8.943 6.524 3.338 16 16 15 255 
9.093 6.45 3.304 19 18 21 255 
9.263 6.537 3.274 13 12 11 255 
9.533 6.495 3.239 9 8 9 255 
9.601 6.4 3.242 9 8 9 255 
5.389 6.788 3.26 77 78 71 255 
5.534 6.724 3.275 73 72 68 255 
5.659 6.665 3.341 102 94 84 255 
5.968 6.65 3.259 63 68 67 255 
6.096 6.699 3.249 57 62 58 255 
6.228 6.74 3.249 37 41 40 255 
6.507 6.699 3.289 22 17 13 255 
6.659 6.658 3.292 24 17 12 255 
7.496 6.791 3.331 21 15 14 255 
7.746 6.652 3.283 16 12 12 255 
7.881 6.708 3.281 13 11 11 255 
8.013 6.784 3.308 12 12 10 255 
8.331 6.681 3.254 15 15 17 255 
8.485 6.758 3.258 14 13 17 255 
8.732 6.768 3.328 14 12 14 255 
8.878 6.691 3.322 21 21 21 255 
9.133 6.632 3.287 21 18 25 255 
9.349 6.738 3.243 9 7 8 255 
9.427 6.634 3.245 8 7 9 255 
5.339 6.917 3.288 62 60 55 255 
5.467 6.885 3.327 82 81 75 255 
5.717 6.916 3.28 65 61 65 255 
5.866 6.921 3.223 52 56 64 255 
6.176 6.829 3.266 60 69 68 255 
6.306 6.886 3.257 61 64 64 255 
6.47 6.944 3.248 32 30 31 255 
6.701 6.888 3.295 21 16 14 255 
7.729 6.875 3.332 25 19 16 255 
7.955 6.829 3.246 11 10 10 255 
8.101 6.885 3.264 11 10 10 255 
8.29 6.94 3.261 22 20 22 255 
8.54 6.869 3.258 15 14 15 255 
8.658 6.915 3.28 14 12 14 255 
9.15 6.922 3.27 12 10 12 255 
9.25 6.868 3.247 7 6 8 255 
5.17 7.167 3.237 65 67 69 255 
5.282 7.1 3.309 77 73 66 255 
5.482 7.047 3.313 59 57 51 255 
5.637 7.082 3.272 89 94 85 255 
5.992 7.024 3.23 37 37 58 255 
6.092 7.082 3.24 48 51 52 255 
6.246 7.174 3.26 43 54 50 255 
6.537 7.038 3.253 34 32 33 255 
6.687 7.122 3.248 22 19 19 255 
6.879 7.16 3.302 18 11 13 255 
7.169 7.115 3.304 22 14 11 255 
7.893 7.093 3.252 12 8 10 255 
8.058 7.077 3.251 35 36 32 255 
8.274 7.125 3.27 27 25 25 255 
8.482 7.097 3.303 13 12 13 255 
8.705 7.142 3.272 35 31 30 255 
8.925 7.118 3.285 9 9 12 255 
9.088 7.085 3.24 9 7 8 255 
12.327 7.162 3.297 29 21 20 255 
4.999 7.398 3.26 55 49 41 255 
5.111 7.31 3.298 81 79 73 255 
5.235 7.248 3.309 73 65 60 255 
5.431 7.342 3.229 46 47 56 255 
5.755 7.268 3.239 48 47 53 255 
5.848 7.341 3.239 36 38 43 255 
6.313 7.295 3.245 19 19 22 255 
6.507 7.369 3.24 29 29 31 255 
6.756 7.25 3.27 30 29 30 255 
6.893 7.285 3.256 22 19 18 255 
7.028 7.361 3.262 20 20 21 255 
7.258 7.242 3.308 27 16 10 255 
7.436 7.363 3.316 21 14 12 255 
7.771 7.348 3.25 9 6 7 255 
7.894 7.323 3.248 8 6 8 255 
8.104 7.283 3.241 11 7 8 255 
8.305 7.251 3.235 15 11 12 255 
8.471 7.329 3.262 19 15 17 255 
8.721 7.328 3.26 14 11 12 255 
8.917 7.326 3.232 25 25 22 255 
9.003 7.218 3.243 4 6 6 255 
12.1 7.336 3.27 19 16 15 255 
12.345 7.229 3.302 26 20 20 255 
12.506 7.274 3.295 30 21 22 255 
12.692 7.295 3.304 27 22 20 255 
12.837 7.348 3.31 23 18 18 255 
4.945 7.522 3.291 80 78 72 255 
5.055 7.455 3.332 89 85 75 255 
5.324 7.414 3.208 14 10 11 255 
5.504 7.486 3.233 27 29 33 255 
5.632 7.539 3.23 37 34 31 255 
5.964 7.452 3.229 19 15 17 255 
6.065 7.501 3.251 24 21 20 255 
6.275 7.513 3.258 34 29 28 255 
6.529 7.457 3.261 32 27 27 255 
6.683 7.557 3.264 16 15 21 255 
6.972 7.445 3.278 17 15 16 255 
7.107 7.48 3.272 15 12 12 255 
7.26 7.542 3.262 16 16 16 255 
7.486 7.519 3.316 15 11 11 255 
7.767 7.491 3.252 9 7 8 255 
7.806 7.568 3.238 8 6 7 255 
8.557 7.431 3.243 14 10 12 255 
8.709 7.498 3.253 23 21 21 255 
8.812 7.435 3.246 9 6 6 255 
11.965 7.476 3.297 13 11 11 255 
12.007 7.494 3.267 13 10 12 255 
12.825 7.498 3.295 29 22 21 255 
4.765 7.748 3.283 85 84 79 255 
4.854 7.666 3.316 86 83 76 255 
5.245 7.723 3.226 39 43 47 255 
5.484 7.725 3.23 11 11 14 255 
5.703 7.645 3.237 16 15 20 255 
5.877 7.759 3.248 12 11 12 255 
6.108 7.781 3.28 64 76 71 255 
6.3 7.702 3.248 16 13 13 255 
6.444 7.78 3.237 14 13 14 255 
6.753 7.645 3.251 62 35 34 255 
6.893 7.699 3.257 47 47 53 255 
7.027 7.669 3.268 16 17 24 255 
7.33 7.674 3.285 14 13 13 255 
7.485 7.74 3.267 17 17 18 255 
7.774 7.715 3.273 11 7 9 255 
7.816 7.696 3.228 10 7 8 255 
8.538 7.718 3.295 10 7 8 255 
8.615 7.616 3.299 10 7 8 255 
12.799 7.746 3.212 22 17 18 255 
12.81 7.695 3.305 24 19 20 255 
4.574 7.966 3.252 54 52 57 255 
4.677 7.89 3.31 91 88 82 255 
4.881 7.925 3.207 26 22 24 255 
5.066 7.981 3.212 19 15 13 255 
5.282 7.834 3.219 69 81 74 255 
5.475 7.883 3.237 41 42 46 255 
5.631 7.975 3.25 15 10 11 255 
5.842 7.846 3.241 14 11 12 255 
6.092 7.939 3.257 10 8 10 255 
6.332 7.805 3.231 14 14 13 255 
6.521 7.867 3.268 19 18 20 255 
6.642 7.934 3.258 13 13 13 255 
6.986 7.823 3.241 28 22 24 255 
7.096 7.885 3.25 23 20 25 255 
7.253 7.93 3.261 17 14 17 255 
7.548 7.85 3.291 13 10 11 255 
7.736 7.859 3.257 14 12 13 255 
7.879 7.924 3.239 8 7 8 255 
8.448 7.839 3.303 8 6 7 255 
12.745 7.947 3.302 18 14 15 255 
12.846 7.843 3.302 20 18 18 255 
4.532 8.07 3.32 62 59 56 255 
4.674 8.04 3.289 61 66 69 255 
4.852 8.149 3.27 60 59 56 255 
5.144 8.032 3.226 41 38 51 255 
5.277 8.147 3.227 32 28 33 255 
5.494 8.008 3.262 55 56 58 255 
5.717 8.082 3.234 57 57 50 255 
5.821 8.113 3.24 43 51 48 255 
6.171 8.013 3.235 9 8 9 255 
6.319 8.08 3.26 15 9 10 255 
6.739 8.016 3.251 16 13 12 255 
6.853 8.09 3.263 22 21 27 255 
7.018 8.184 3.269 47 54 60 255 
7.315 8.044 3.262 13 11 10 255 
7.47 8.134 3.273 14 12 13 255 
7.743 8.014 3.325 12 11 13 255 
7.92 8.043 3.286 16 16 16 255 
8.089 8.102 3.25 12 11 12 255 
8.203 8.163 3.208 8 6 7 255 
12.53 8.126 3.292 7 5 6 255 
12.647 8.027 3.304 7 6 7 255 
4.933 8.274 3.288 54 55 57 255 
5.079 8.334 3.257 42 42 42 255 
5.349 8.275 3.231 41 45 43 255 
5.494 8.311 3.234 34 35 34 255 
5.628 8.379 3.238 61 67 56 255 
5.934 8.241 3.249 54 59 61 255 
6.086 8.324 3.25 61 64 64 255 
6.494 8.25 3.254 26 21 19 255 
6.693 8.369 3.266 34 45 48 255 
6.923 8.255 3.254 42 31 21 255 
7.105 8.299 3.262 50 51 48 255 
7.228 8.356 3.274 81 88 71 255 
7.527 8.268 3.269 30 33 28 255 
7.702 8.324 3.275 13 9 10 255 
8.147 8.31 3.277 11 11 12 255 
8.22 8.22 3.246 12 10 12 255 
5.138 8.445 3.282 51 52 51 255 
5.299 8.505 3.277 42 43 44 255 
5.43 8.577 3.263 27 28 33 255 
5.719 8.478 3.244 38 29 33 255 
5.89 8.556 3.242 38 40 44 255 
6.152 8.427 3.242 77 55 59 255 
6.298 8.487 3.254 82 77 74 255 
6.486 8.514 3.266 51 61 55 255 
6.697 8.424 3.266 28 22 22 255 
6.873 8.523 3.259 64 63 56 255 
7.093 8.498 3.262 49 39 52 255 
7.358 8.497 3.269 63 61 74 255 
7.472 8.518 3.284 70 71 76 255 
7.749 8.466 3.28 41 43 42 255 
7.944 8.51 3.277 14 10 10 255 
8.054 8.441 3.238 6 5 8 255 
5.391 8.644 3.224 30 34 29 255 
5.51 8.68 3.279 35 36 36 255 
5.657 8.751 3.288 44 45 46 255 
5.933 8.629 3.242 15 14 15 255 
6.117 8.747 3.246 14 11 12 255 
6.497 8.659 3.25 77 94 88 255 
6.652 8.745 3.261 67 60 58 255 
6.979 8.637 3.266 67 82 91 255 
7.099 8.678 3.262 35 44 44 255 
7.239 8.775 3.276 31 26 28 255 
7.558 8.665 3.275 45 43 46 255 
7.711 8.714 3.269 25 29 32 255 
7.866 8.695 3.248 15 13 15 255 
5.73 8.861 3.27 30 29 31 255 
5.877 8.945 3.306 56 56 52 255 
6.149 8.811 3.236 10 7 9 255 
6.312 8.925 3.247 10 8 9 255 
6.731 8.863 3.263 45 60 64 255 
6.894 8.919 3.26 31 38 40 255 
7 8.996 3.272 37 26 28 255 
7.307 8.901 3.262 16 10 13 255 
7.499 8.913 3.283 25 23 21 255 
7.703 8.893 3.263 19 17 19 255 
5.953 9.049 3.266 30 29 28 255 
6.091 9.111 3.287 53 54 50 255 
6.267 9.159 3.287 50 53 47 255 
6.517 9.088 3.245 9 7 8 255 
6.644 9.137 3.263 11 8 10 255 
6.956 9.032 3.257 11 7 9 255 
7.092 9.092 3.266 19 19 22 255 
7.295 9.181 3.273 10 10 10 255 
7.543 9.111 3.248 8 7 9 255 
7.617 9.044 3.241 7 7 8 255 
6.166 9.264 3.221 18 13 15 255 
6.318 9.294 3.289 53 57 55 255 
6.446 9.367 3.302 66 73 68 255 
6.765 9.28 3.261 8 7 8 255 
6.898 9.305 3.312 20 20 20 255 
7.012 9.304 3.279 9 8 6 255 
7.319 9.315 3.261 7 6 7 255 
7.428 9.289 3.244 6 6 7 255 
6.103 9.581 3.234 26 26 27 255 
6.236 9.516 3.237 59 78 84 255 
6.483 9.498 3.308 34 33 32 255 
6.705 9.514 3.329 42 46 42 255 
6.905 9.432 3.287 10 8 10 255 
7.101 9.528 3.257 9 8 8 255 
7.274 9.496 3.241 7 6 7 255 
14.28 9.56 3.294 6 5 6 255 
5.971 9.742 3.299 37 30 28 255 
6.063 9.648 3.26 28 23 24 255 
6.311 9.644 3.268 28 24 24 255 
6.517 9.655 3.247 26 24 25 255 
6.684 9.725 3.297 23 20 19 255 
7.1 9.71 3.231 14 13 15 255 
7.22 9.605 3.208 6 5 7 255 
13.983 9.783 3.313 7 6 6 255 
14.105 9.69 3.303 7 5 7 255 
14.311 9.622 3.292 11 9 11 255 
14.496 9.662 3.309 16 13 12 255 
14.615 9.674 3.256 17 12 14 255 
5.98 9.875 3.309 37 31 28 255 
6.006 9.967 3.318 38 29 27 255 
6.758 9.819 3.273 26 21 20 255 
6.896 9.884 3.253 25 22 21 255 
7.022 9.812 3.238 57 70 69 255 
13.94 9.888 3.3 13 10 11 255 
5.974 10.144 3.304 37 31 29 255 
6.018 10.075 3.296 39 32 26 255 
6.748 10.103 3.278 32 35 36 255 
6.815 10.005 3.286 34 25 25 255 
14.088 10.101 3.3 15 12 12 255 
5.959 10.26 3.287 114 106 98 255 
6.051 10.35 3.323 124 114 104 255 
6.558 10.355 3.296 33 30 28 255 
6.64 10.243 3.279 32 23 23 255 
14.189 10.265 3.309 21 14 14 255 
5.935 10.526 3.3 100 98 91 255 
6.024 10.429 3.29 117 115 100 255 
6.575 10.432 3.329 37 27 27 255 
6.695 10.524 3.301 33 29 28 255 
5.765 10.76 3.305 107 102 87 255 
5.853 10.657 3.284 104 98 88 255 
5.576 10.966 3.335 94 82 79 255 
5.679 10.892 3.299 106 105 95 255 
5.318 11.127 3.295 80 74 64 255 
5.51 11.107 3.294 84 75 70 255 
5.609 11.009 3.266 124 104 89 255 
5.32 11.338 3.305 93 87 73 255 
5.406 11.224 3.307 98 95 83 255 
5.164 11.553 3.314 95 89 83 255 
5.248 11.461 3.296 92 92 84 255 
4.981 11.773 3.334 66 60 53 255 
5.074 11.694 3.295 85 79 67 255 
4.505 11.92 3.297 40 35 22 255 
4.655 11.973 3.302 47 43 29 255 
4.922 11.892 3.304 66 65 52 255 
5.025 11.843 3.223 41 41 30 255 
4.176 12.13 3.302 43 40 29 255 
4.295 12.11 3.301 39 37 24 255 
4.476 12.076 3.302 38 36 23 255 
4.705 12.033 3.298 41 35 24 255 
4.839 12.035 3.285 48 45 31 255 
4.164 12.295 3.291 38 34 28 255 
4.216 12.297 3.299 40 35 26 255 
4.189 12.521 3.302 43 38 35 255 
4.226 12.498 3.302 37 31 28 255 
4.168 12.643 3.304 118 111 102 255 
4.268 12.715 3.304 120 112 102 255 
4.151 12.938 3.319 95 91 83 255 
4.239 12.886 3.3 77 73 68 255 
4.484 12.912 3.243 83 77 75 255 
3.966 13.159 3.321 88 81 76 255 
4.059 13.078 3.327 99 94 84 255 
4.277 13.129 3.238 37 35 29 255 
4.545 13.087 3.213 26 26 23 255 
3.777 13.37 3.334 91 79 78 255 
3.889 13.294 3.322 97 93 85 255 
4.128 13.306 3.236 32 31 30 255 
4.282 13.263 3.227 26 24 21 255 
4.414 13.239 3.214 28 27 24 255 
3.53 13.493 3.299 95 90 84 255 
3.697 13.517 3.302 73 67 63 255 
3.889 13.485 3.281 106 102 94 255 
4.041 13.451 3.236 33 28 23 255 
4.263 13.448 3.207 20 22 25 255 
3.533 13.741 3.321 87 85 75 255 
3.68 13.669 3.264 109 100 90 255 
3.913 13.695 3.241 62 62 57 255 
4.02 13.785 3.238 34 28 25 255 
3.368 13.955 3.334 94 90 82 255 
3.457 13.872 3.325 91 88 81 255 
3.669 13.916 3.248 43 41 33 255 
3.903 13.873 3.222 82 77 72 255 
3.184 14.163 3.343 74 67 67 255 
3.286 14.098 3.326 95 90 83 255 
3.533 14.099 3.237 29 26 24 255 
3.685 14.087 3.236 29 31 28 255 
4.068 14.055 3.205 44 40 36 255 
2.742 14.396 3.298 38 26 21 255 
2.876 14.372 3.294 32 27 25 255 
3.129 14.31 3.325 97 92 86 255 
3.302 14.295 3.272 57 54 50 255 
3.455 14.251 3.24 33 31 25 255 
3.655 14.26 3.213 24 28 22 255 
2.391 14.51 3.259 37 31 30 255 
2.504 14.497 3.325 33 26 23 255 
2.689 14.443 3.296 34 26 23 255 
2.97 14.43 3.274 33 27 24 255 
3.054 14.431 3.29 35 28 27 255 
3.279 14.474 3.235 85 81 75 255 
2.428 14.706 3.3 38 31 30 255 
3.263 14.622 3.229 33 28 25 255 
2.393 14.98 3.291 131 119 112 255 
2.433 14.915 3.297 122 112 105 255 
2.398 15.009 3.268 131 119 112 255 
2.468 15.103 3.303 114 106 100 255 
2.469 15.208 3.289 44 43 45 255 
7.544 3.986 3.519 40 37 37 255 
7.623 3.957 3.521 48 54 51 255 
7.52 4.086 3.5 56 52 46 255 
7.615 4.024 3.488 50 48 45 255 
9.961 4.175 3.477 33 23 22 255 
10.091 4.15 3.49 36 27 23 255 
10.345 4.146 3.519 26 21 19 255 
10.491 4.143 3.469 14 6 7 255 
7.348 4.332 3.499 63 55 45 255 
7.423 4.233 3.494 65 55 45 255 
9.959 4.257 3.466 42 45 41 255 
10.392 4.201 3.5 33 21 21 255 
10.48 4.241 3.502 29 21 20 255 
7.175 4.565 3.507 67 59 50 255 
7.25 4.467 3.494 65 57 47 255 
7.08 4.696 3.496 66 58 48 255 
10.481 4.703 3.493 42 29 27 255 
6.774 4.964 3.536 48 45 40 255 
6.927 4.899 3.502 59 50 42 255 
7.006 4.805 3.468 63 49 43 255 
10.493 4.852 3.494 43 33 29 255 
10.689 4.907 3.476 40 30 30 255 
10.881 4.96 3.486 38 27 26 255 
6.745 5.114 3.498 59 53 45 255 
6.83 5.033 3.489 52 45 40 255 
10.891 5.035 3.471 42 34 30 255 
6.576 5.368 3.498 65 55 44 255 
6.651 5.269 3.499 64 53 42 255 
6.394 5.598 3.516 55 48 48 255 
6.477 5.501 3.502 68 58 48 255 
10.789 5.572 3.455 29 18 18 255 
10.902 5.457 3.504 28 21 19 255 
6.322 5.692 3.498 56 50 43 255 
6.406 5.605 3.475 52 44 41 255 
10.568 5.749 3.441 27 20 21 255 
10.647 5.687 3.514 25 21 20 255 
6.151 5.935 3.5 59 51 44 255 
6.227 5.836 3.498 56 48 42 255 
10.502 5.808 3.561 31 26 32 255 
5.977 6.165 3.498 59 49 40 255 
6.053 6.066 3.495 60 50 43 255 
9.275 6.108 3.473 29 24 23 255 
5.769 6.371 3.496 66 61 54 255 
5.88 6.296 3.5 51 45 40 255 
9.123 6.306 3.466 24 21 20 255 
5.749 6.529 3.502 93 84 72 255 
5.822 6.44 3.499 79 68 59 255 
8.943 6.539 3.505 32 26 23 255 
9.019 6.439 3.494 34 30 26 255 
5.574 6.767 3.497 106 99 86 255 
5.653 6.667 3.5 103 92 79 255 
8.756 6.731 3.544 33 30 29 255 
8.848 6.658 3.513 30 28 24 255 
5.31 6.963 3.468 84 79 71 255 
5.478 6.891 3.502 103 95 85 255 
8.577 6.966 3.546 42 38 32 255 
8.663 6.867 3.53 43 38 34 255 
5.171 7.073 3.555 76 76 65 255 
5.304 7.094 3.506 81 77 69 255 
8.396 7.195 3.59 39 29 31 255 
8.493 7.095 3.533 36 32 31 255 
12.32 7.172 3.466 32 25 22 255 
5.138 7.321 3.498 94 86 73 255 
5.216 7.225 3.494 90 84 74 255 
8.351 7.261 3.538 38 33 32 255 
8.458 7.322 3.491 30 25 25 255 
12.334 7.229 3.471 27 20 21 255 
12.501 7.274 3.511 34 23 22 255 
12.715 7.301 3.503 26 21 21 255 
12.844 7.354 3.498 23 19 18 255 
4.961 7.548 3.501 92 82 71 255 
5.039 7.45 3.499 91 83 73 255 
8.565 7.427 3.509 32 23 20 255 
8.653 7.522 3.501 26 20 17 255 
11.977 7.476 3.435 12 9 13 255 
12.827 7.5 3.497 31 22 21 255 
4.781 7.778 3.505 96 89 78 255 
4.861 7.677 3.499 95 87 75 255 
8.543 7.712 3.502 23 17 15 255 
8.611 7.619 3.478 23 16 14 255 
12.798 7.742 3.453 13 10 11 255 
12.813 7.703 3.507 22 19 18 255 
4.546 7.992 3.513 85 86 85 255 
4.687 7.898 3.499 103 97 86 255 
8.432 7.857 3.508 23 17 15 255 
12.742 7.949 3.485 15 14 16 255 
12.848 7.847 3.51 25 23 24 255 
4.533 8.078 3.502 67 65 61 255 
4.606 8.007 3.499 74 78 75 255 
12.517 8.135 3.497 8 6 9 255 
12.634 8.039 3.503 11 10 12 255 
7.394 8.56 3.595 108 110 97 255 
7.463 8.481 3.585 113 109 99 255 
7.279 8.722 3.564 65 65 56 255 
7.133 8.917 3.547 70 66 61 255 
7.215 8.815 3.531 19 20 38 255 
6.962 9.147 3.526 61 60 61 255 
7.031 9.052 3.523 72 72 68 255 
6.765 9.366 3.491 67 71 63 255 
6.869 9.287 3.507 67 68 67 255 
6.471 9.56 3.491 35 27 26 255 
6.719 9.48 3.505 59 59 56 255 
6.803 9.404 3.469 88 89 74 255 
14.287 9.563 3.493 6 4 7 255 
5.977 9.733 3.503 36 29 26 255 
6.102 9.661 3.513 38 29 24 255 
6.284 9.638 3.502 36 25 22 255 
6.511 9.642 3.503 34 28 24 255 
6.679 9.719 3.501 37 29 25 255 
13.985 9.782 3.491 7 6 8 255 
14.102 9.691 3.477 6 5 7 255 
14.309 9.622 3.519 12 10 10 255 
14.5 9.662 3.516 15 11 11 255 
14.632 9.671 3.474 15 14 15 255 
5.991 9.877 3.503 38 32 31 255 
6.006 9.974 3.509 39 33 31 255 
6.783 9.818 3.512 34 28 27 255 
6.842 9.861 3.502 36 26 23 255 
13.933 9.888 3.491 13 10 11 255 
14.001 9.995 3.433 16 12 14 255 
5.994 10.184 3.484 34 28 28 255 
6.017 10.094 3.513 38 31 29 255 
14.081 10.095 3.498 15 13 13 255 
5.966 10.227 3.502 111 102 91 255 
6.046 10.325 3.5 118 117 108 255 
6.54 10.388 3.478 41 31 29 255 
14.181 10.213 3.46 17 14 15 255 
14.24 10.322 3.485 21 15 13 255 
5.957 10.532 3.419 78 81 71 255 
6.024 10.431 3.504 105 97 91 255 
6.577 10.435 3.499 44 38 31 255 
6.702 10.526 3.507 38 30 28 255 
5.76 10.791 3.409 93 109 91 255 
5.822 10.73 3.426 59 54 45 255 
5.7 10.898 3.422 56 50 46 255 
5.317 11.123 3.501 100 91 81 255 
5.501 11.134 3.497 77 69 67 255 
5.614 11.021 3.411 120 114 86 255 
5.322 11.331 3.5 68 66 64 255 
5.407 11.224 3.505 130 119 112 255 
5.17 11.546 3.417 68 55 41 255 
5.259 11.434 3.463 46 43 39 255 
4.988 11.774 3.401 102 112 59 255 
5.07 11.689 3.416 74 66 44 255 
4.499 11.916 3.5 28 26 23 255 
4.651 11.982 3.498 31 31 25 255 
4.887 11.947 3.478 67 67 53 255 
4.176 12.126 3.497 40 36 26 255 
4.29 12.112 3.505 38 33 23 255 
4.469 12.08 3.498 34 29 25 255 
4.717 12.038 3.503 29 26 22 255 
4.848 12.027 3.499 45 47 41 255 
5.02 12.164 3.471 49 50 39 255 
4.167 12.308 3.505 39 34 29 255 
4.216 12.3 3.501 41 36 30 255 
4.191 12.518 3.497 42 38 31 255 
4.226 12.501 3.501 39 34 27 255 
4.169 12.64 3.497 116 110 102 255 
4.269 12.718 3.5 123 118 110 255 
4.173 12.934 3.44 83 74 60 255 
4.227 12.875 3.498 50 47 45 255 
3.991 13.17 3.419 66 37 30 255 
4.073 13.117 3.414 89 89 77 255 
4.248 13.038 3.554 51 59 52 255 
3.914 13.307 3.416 86 81 64 255 
3.531 13.49 3.5 101 94 87 255 
3.702 13.527 3.499 69 64 60 255 
3.82 13.479 3.481 125 115 105 255 
3.558 13.726 3.492 66 66 57 255 
3.611 13.623 3.486 130 118 111 255 
3.814 13.644 3.503 39 30 30 255 
3.376 13.977 3.403 120 118 111 255 
3.483 13.895 3.447 75 75 67 255 
3.315 14.1 3.421 82 79 71 255 
3.51 14.083 3.566 51 63 60 255 
2.738 14.394 3.49 32 26 24 255 
2.869 14.364 3.514 35 28 25 255 
3.12 14.367 3.471 96 89 83 255 
3.23 14.267 3.425 100 93 87 255 
2.392 14.477 3.519 40 31 28 255 
2.564 14.485 3.446 29 25 24 255 
2.644 14.479 3.54 32 25 23 255 
2.924 14.413 3.449 34 24 22 255 
3.126 14.445 3.488 63 59 54 255 
3.203 14.578 3.549 39 22 18 255 
2.429 14.701 3.499 38 33 31 255 
2.392 14.98 3.502 131 119 112 255 
2.434 14.917 3.499 122 112 104 255 
3.2 14.849 3.467 38 26 25 255 
3.214 14.973 3.525 24 23 18 255 
2.395 15.002 3.494 131 119 112 255 
2.469 15.109 3.499 102 96 92 255 
3.233 15.08 3.585 32 27 28 255 
2.47 15.209 3.494 16 14 17 255 
7.528 3.971 3.742 41 35 35 255 
7.602 3.844 3.798 33 37 57 255 
7.372 4.146 3.778 32 25 25 255 
7.512 4.035 3.697 43 41 40 255 
9.969 4.157 3.663 28 25 25 255 
10.12 4.151 3.707 33 24 21 255 
10.297 4.148 3.715 27 21 19 255 
10.491 4.148 3.681 11 10 10 255 
7.164 4.391 3.798 32 23 24 255 
7.287 4.299 3.736 38 23 21 255 
7.41 4.246 3.609 27 19 17 255 
7.139 4.516 3.707 39 35 33 255 
7.24 4.472 3.614 40 24 27 255 
6.91 4.753 3.781 31 26 25 255 
7.073 4.699 3.611 53 43 33 255 
10.483 4.758 3.696 43 37 34 255 
6.771 4.927 3.704 44 43 40 255 
6.864 4.853 3.689 44 40 37 255 
10.485 4.85 3.674 43 32 33 255 
10.663 4.904 3.696 38 34 32 255 
10.828 4.92 3.706 32 27 28 255 
6.553 5.196 3.791 39 33 29 255 
6.695 5.083 3.72 45 38 33 255 
6.81 5.051 3.617 52 47 40 255 
6.495 5.318 3.746 38 28 27 255 
6.649 5.262 3.612 59 47 44 255 
6.326 5.501 3.789 38 31 31 255 
6.479 5.494 3.611 54 47 41 255 
10.864 5.522 3.694 24 17 17 255 
6.154 5.739 3.787 43 40 43 255 
6.281 5.684 3.69 40 36 34 255 
10.547 5.78 3.647 39 24 20 255 
10.661 5.791 3.735 31 22 19 255 
5.988 5.977 3.784 46 42 42 255 
6.092 5.892 3.726 48 41 39 255 
6.209 5.85 3.603 72 66 38 255 
10.597 5.884 3.787 42 32 26 255 
5.91 6.118 3.753 59 58 56 255 
6.054 6.067 3.612 52 41 34 255 
9.198 6.196 3.694 67 56 47 255 
9.274 6.096 3.7 68 60 50 255 
5.762 6.348 3.719 53 44 41 255 
5.887 6.29 3.644 59 53 48 255 
6.026 6.207 3.62 52 35 33 255 
9.121 6.3 3.685 68 58 48 255 
5.736 6.495 3.66 58 45 40 255 
5.828 6.44 3.617 52 55 51 255 
8.867 6.568 3.754 45 39 33 255 
9.017 6.431 3.723 67 52 42 255 
5.575 6.768 3.618 59 45 46 255 
5.657 6.662 3.616 64 51 44 255 
8.755 6.718 3.69 60 53 46 255 
8.82 6.634 3.691 49 43 38 255 
5.395 6.993 3.605 82 61 48 255 
5.485 6.882 3.614 66 49 46 255 
8.573 6.959 3.718 66 56 45 255 
8.648 6.869 3.691 64 52 40 255 
5.129 7.131 3.682 56 49 44 255 
5.311 7.098 3.617 71 63 52 255 
8.359 7.192 3.716 43 37 34 255 
8.479 7.091 3.692 58 50 42 255 
12.12 7.187 3.748 30 28 33 255 
12.316 7.182 3.699 29 22 23 255 
5.085 7.276 3.698 69 61 54 255 
5.216 7.219 3.616 82 68 57 255 
7.782 7.341 3.716 46 39 35 255 
7.922 7.328 3.724 56 33 32 255 
8.132 7.27 3.736 51 42 38 255 
8.321 7.239 3.691 47 42 38 255 
8.494 7.302 3.697 51 50 49 255 
8.654 7.335 3.776 52 45 41 255 
12.373 7.231 3.692 28 23 22 255 
12.512 7.274 3.701 28 21 22 255 
12.688 7.296 3.708 27 20 20 255 
12.839 7.349 3.692 28 22 20 255 
4.951 7.554 3.616 70 55 48 255 
5.047 7.433 3.611 79 79 70 255 
8.566 7.43 3.633 39 38 40 255 
8.678 7.491 3.704 51 49 45 255 
12.827 7.498 3.702 28 21 21 255 
4.78 7.77 3.616 67 50 59 255 
4.85 7.685 3.613 68 61 54 255 
7.781 7.797 3.749 54 46 41 255 
8.535 7.717 3.702 49 44 37 255 
8.611 7.614 3.698 38 39 37 255 
12.811 7.701 3.699 34 31 30 255 
4.535 7.987 3.691 102 104 93 255 
4.683 7.898 3.616 66 53 44 255 
8.387 7.917 3.726 57 48 42 255 
8.44 7.844 3.692 46 40 36 255 
12.754 7.956 3.707 41 38 38 255 
12.844 7.853 3.698 45 47 49 255 
4.518 8.051 3.691 36 30 31 255 
7.686 8.133 3.76 98 94 80 255 
12.529 8.158 3.653 26 22 21 255 
12.712 8.077 3.716 26 24 25 255 
12.809 8.037 3.758 34 24 28 255 
12.53 8.262 3.742 17 12 13 255 
12.64 8.214 3.771 17 16 15 255 
7.373 8.566 3.706 102 96 87 255 
7.45 8.464 3.698 107 100 90 255 
7.185 8.799 3.77 101 89 77 255 
7.277 8.693 3.703 95 88 77 255 
7.114 8.905 3.71 100 91 80 255 
7.208 8.81 3.611 120 115 104 255 
6.949 9.126 3.71 99 91 81 255 
7.027 9.029 3.675 99 91 78 255 
6.773 9.364 3.71 110 104 93 255 
6.85 9.272 3.694 107 99 88 255 
6.454 9.568 3.703 44 36 34 255 
6.69 9.485 3.704 96 93 83 255 
14.048 9.544 3.761 6 5 7 255 
14.282 9.569 3.682 9 6 8 255 
5.975 9.737 3.697 38 32 29 255 
6.104 9.661 3.719 32 25 24 255 
6.321 9.633 3.701 35 22 20 255 
6.483 9.636 3.689 35 29 23 255 
6.714 9.692 3.693 61 58 55 255 
6.884 9.742 3.746 73 71 68 255 
13.973 9.789 3.674 11 7 10 255 
14.125 9.668 3.657 8 6 8 255 
14.344 9.634 3.711 14 11 12 255 
14.503 9.663 3.704 14 10 12 255 
14.62 9.678 3.637 19 13 14 255 
5.992 9.863 3.698 38 29 27 255 
6.005 9.959 3.709 39 29 27 255 
6.796 9.817 3.663 39 29 24 255 
6.885 9.889 3.713 50 47 44 255 
13.941 9.901 3.651 13 10 11 255 
5.988 10.191 3.706 45 32 31 255 
6.017 10.083 3.703 36 30 28 255 
14.073 10.086 3.66 16 13 13 255 
5.978 10.237 3.7 116 109 100 255 
6.048 10.341 3.7 128 119 108 255 
6.554 10.399 3.632 35 26 25 255 
14.249 10.314 3.686 18 15 14 255 
6.024 10.435 3.708 95 98 99 255 
6.574 10.428 3.615 39 41 39 255 
6.706 10.529 3.702 35 29 28 255 
5.315 11.124 3.701 102 95 88 255 
5.496 11.134 3.7 75 68 66 255 
5.321 11.331 3.702 59 55 56 255 
5.406 11.222 3.702 120 115 104 255 
5.276 11.41 3.713 13 13 13 255 
4.501 11.913 3.696 27 23 22 255 
4.658 11.989 3.698 26 21 20 255 
4.861 11.974 3.695 98 95 87 255 
4.177 12.131 3.706 41 35 31 255 
4.294 12.11 3.699 35 28 26 255 
4.458 12.08 3.707 34 25 24 255 
4.694 12.033 3.699 24 19 19 255 
4.857 12.051 3.696 43 43 41 255 
4.165 12.299 3.698 39 35 28 255 
4.215 12.303 3.699 39 37 30 255 
4.187 12.523 3.711 45 39 33 255 
4.226 12.495 3.697 37 34 26 255 
4.167 12.642 3.692 121 114 104 255 
4.271 12.723 3.696 129 119 109 255 
4.229 12.879 3.704 58 59 54 255 
4.192 13.188 3.731 93 103 94 255 
4.234 13.078 3.679 87 102 92 255 
4.042 13.368 3.653 91 98 87 255 
3.529 13.489 3.702 102 94 86 255 
3.702 13.526 3.701 70 65 60 255 
3.84 13.515 3.681 99 93 86 255 
3.561 13.728 3.7 90 98 87 255 
3.612 13.62 3.688 130 118 111 255 
3.572 13.887 3.712 91 104 91 255 
3.532 14.063 3.675 97 111 97 255 
2.713 14.394 3.683 35 27 24 255 
2.874 14.353 3.707 36 26 24 255 
3.095 14.371 3.69 79 72 68 255 
2.393 14.473 3.691 39 33 30 255 
2.483 14.472 3.702 36 28 26 255 
2.739 14.464 3.697 33 26 24 255 
2.806 14.447 3.792 41 26 24 255 
3.14 14.523 3.702 34 26 27 255 
2.429 14.699 3.696 38 32 31 255 
3.206 14.77 3.684 38 31 27 255 
2.392 14.973 3.713 131 119 112 255 
2.434 14.912 3.697 121 111 104 255 
3.218 14.928 3.672 36 31 24 255 
2.398 15.005 3.641 131 119 112 255 
2.467 15.102 3.705 108 101 96 255 
3.23 15.081 3.736 31 22 19 255 
2.467 15.206 3.687 16 15 18 255 
7.647 3.782 3.849 40 32 32 255 
7.527 3.935 3.841 57 59 57 255 
7.617 3.834 3.829 53 55 54 255 
7.348 4.158 3.863 38 40 43 255 
7.49 4.031 3.895 66 69 65 255 
9.961 4.16 3.939 30 22 20 255 
10.088 4.153 3.879 31 24 25 255 
10.292 4.147 3.938 32 23 21 255 
10.492 4.143 3.848 19 12 10 255 
7.18 4.372 3.891 34 37 44 255 
7.263 4.277 3.906 38 42 47 255 
9.966 4.3 3.937 36 29 29 255 
6.996 4.587 3.822 29 28 35 255 
7.086 4.498 3.905 43 46 52 255 
9.973 4.495 3.938 40 30 29 255 
6.926 4.704 3.901 36 39 47 255 
7.01 4.607 3.92 49 54 63 255 
9.975 4.696 3.947 33 25 24 255 
10.487 4.659 3.844 38 27 24 255 
6.747 4.934 3.898 45 48 53 255 
6.826 4.837 3.914 45 46 52 255 
9.58 4.951 3.94 35 27 23 255 
9.682 4.88 3.942 29 22 20 255 
9.928 4.833 3.946 27 21 20 255 
6.574 5.164 3.893 41 46 55 255 
6.65 5.066 3.904 42 45 51 255 
9.59 5.033 3.928 43 29 31 255 
9.608 5.14 3.939 73 65 64 255 
6.393 5.395 3.814 64 72 85 255 
6.489 5.282 3.899 42 45 51 255 
9.59 5.398 3.986 59 51 48 255 
9.622 5.293 3.951 114 109 104 255 
6.318 5.502 3.821 71 71 62 255 
9.577 5.462 3.919 33 28 31 255 
9.66 5.524 3.968 35 29 32 255 
10.865 5.517 3.842 31 22 19 255 
6.157 5.729 3.814 65 71 68 255 
6.27 5.671 3.901 71 70 70 255 
9.538 5.732 3.965 40 26 22 255 
9.633 5.629 3.964 26 22 21 255 
10.899 5.707 3.889 26 21 21 255 
5.98 5.98 3.826 53 38 48 255 
6.053 5.878 3.815 83 91 83 255 
9.361 5.94 3.961 38 27 25 255 
9.475 5.837 3.97 38 30 29 255 
10.673 5.935 3.81 39 31 28 255 
10.993 5.801 3.922 19 14 16 255 
11.072 5.903 3.939 24 20 20 255 
5.904 6.092 3.81 52 55 56 255 
9.185 6.141 3.955 20 8 15 255 
9.274 6.09 3.951 37 27 27 255 
11.1 6.013 3.879 25 17 18 255 
11.256 6.12 3.925 28 19 21 255 
5.76 6.363 3.885 50 44 42 255 
5.817 6.223 3.82 43 27 25 255 
8.994 6.377 3.953 10 12 21 255 
9.091 6.296 3.888 40 36 35 255 
9.279 6.265 3.997 28 21 21 255 
11.323 6.271 3.946 30 23 21 255 
11.428 6.348 3.958 29 23 20 255 
5.745 6.409 3.893 56 51 49 255 
8.906 6.521 3.898 50 46 41 255 
9.028 6.507 3.958 40 35 33 255 
9.388 6.565 3.929 69 65 52 255 
11.123 6.5 3.91 35 26 25 255 
11.328 6.472 3.917 41 29 31 255 
11.52 6.49 3.955 30 23 20 255 
11.624 6.582 3.97 33 21 18 255 
8.752 6.714 3.898 60 51 43 255 
8.843 6.638 3.921 53 43 36 255 
9.021 6.647 3.97 40 42 36 255 
9.285 6.711 3.953 58 53 47 255 
11.262 6.674 3.916 32 28 31 255 
11.715 6.698 3.949 35 25 22 255 
8.564 6.952 3.912 59 51 43 255 
8.648 6.862 3.919 59 48 41 255 
8.88 6.849 3.906 72 60 50 255 
9.119 6.925 3.939 67 58 48 255 
9.208 6.821 3.984 59 53 42 255 
11.435 6.832 3.906 42 34 35 255 
11.888 6.903 3.925 38 28 27 255 
5.074 7.197 3.834 93 98 89 255 
8.344 7.18 3.927 47 41 37 255 
8.473 7.076 3.913 61 51 43 255 
8.674 7.108 3.846 65 52 42 255 
8.94 7.134 3.905 62 52 42 255 
9.038 7.049 3.959 67 56 47 255 
11.978 7.015 3.934 41 37 31 255 
12.066 7.123 3.903 38 32 31 255 
12.323 7.191 3.901 34 25 22 255 
4.961 7.354 3.932 75 71 69 255 
5.031 7.266 3.868 52 51 49 255 
7.767 7.357 3.917 44 35 31 255 
7.894 7.33 3.918 50 40 35 255 
8.12 7.291 3.929 52 42 35 255 
8.289 7.239 3.918 44 38 35 255 
8.401 7.259 3.999 42 46 46 255 
8.75 7.347 3.876 57 48 39 255 
8.851 7.283 3.904 67 58 46 255 
12.374 7.232 3.897 33 23 22 255 
12.478 7.271 3.902 32 24 23 255 
12.69 7.297 3.902 27 21 21 255 
12.841 7.353 3.887 26 20 20 255 
4.916 7.414 3.966 130 119 112 255 
7.768 7.486 3.929 46 35 33 255 
7.806 7.543 3.95 45 37 35 255 
8.689 7.51 3.904 54 48 42 255 
12.829 7.5 3.906 28 21 22 255 
7.777 7.705 3.943 46 35 31 255 
7.82 7.681 3.959 41 32 30 255 
8.537 7.711 3.899 63 55 45 255 
8.61 7.608 3.855 40 30 42 255 
12.814 7.703 3.897 38 29 27 255 
4.542 7.99 3.888 79 84 72 255 
7.757 7.861 3.942 59 53 48 255 
7.841 7.907 3.97 60 51 48 255 
8.386 7.916 3.887 61 49 40 255 
8.439 7.839 3.901 66 58 47 255 
12.764 7.959 3.891 34 26 25 255 
12.844 7.849 3.909 38 33 30 255 
4.512 8.049 3.901 32 25 25 255 
7.684 8.102 3.939 65 53 47 255 
12.788 8.01 3.93 36 31 28 255 
12.874 8.107 3.905 33 26 25 255 
7.525 8.316 3.939 67 54 45 255 
7.608 8.211 3.896 90 72 63 255 
12.7 8.329 3.818 20 14 15 255 
12.953 8.252 3.886 27 27 25 255 
13.061 8.327 3.925 29 27 29 255 
7.356 8.544 3.923 76 63 56 255 
7.435 8.452 3.918 76 69 62 255 
12.739 8.492 3.843 18 15 19 255 
12.894 8.461 3.858 24 22 20 255 
13.142 8.459 3.925 28 27 26 255 
13.25 8.551 3.945 30 28 28 255 
7.18 8.774 3.915 75 66 60 255 
7.26 8.678 3.919 78 69 59 255 
12.919 8.67 3.877 21 23 24 255 
13.111 8.696 3.892 23 22 22 255 
13.333 8.667 3.945 27 23 26 255 
13.418 8.765 3.95 25 23 25 255 
7.096 8.894 3.917 72 62 54 255 
7.213 8.841 3.994 54 40 40 255 
12.994 8.839 3.888 23 20 22 255 
13.082 8.924 3.894 21 18 20 255 
13.279 8.897 3.9 17 14 18 255 
13.508 8.871 3.95 20 17 20 255 
6.935 9.111 3.917 74 65 58 255 
7.022 9.039 3.93 71 61 50 255 
7.447 9.166 3.913 79 67 64 255 
6.755 9.341 3.91 85 76 67 255 
6.849 9.262 3.925 71 62 55 255 
7.097 9.357 3.871 99 94 83 255 
7.315 9.303 3.932 88 80 68 255 
7.415 9.203 3.965 83 79 70 255 
13.891 9.349 3.902 12 9 11 255 
6.492 9.567 3.912 42 35 33 255 
6.674 9.479 3.918 76 73 68 255 
6.91 9.497 3.83 105 101 90 255 
7.134 9.548 3.9 99 91 81 255 
7.232 9.449 3.933 89 80 69 255 
13.964 9.443 3.89 13 10 11 255 
14.054 9.545 3.902 15 11 12 255 
14.296 9.584 3.908 10 9 10 255 
5.965 9.742 3.909 41 32 32 255 
6.099 9.719 3.92 36 29 27 255 
6.298 9.687 3.923 32 26 24 255 
6.495 9.636 3.941 33 28 25 255 
6.626 9.624 3.98 31 30 27 255 
6.986 9.743 3.863 89 93 87 255 
7.055 9.683 3.908 94 90 79 255 
14.335 9.628 3.904 14 10 11 255 
14.496 9.664 3.904 15 12 12 255 
5.973 9.877 3.91 40 34 31 255 
6.007 9.966 3.878 38 33 32 255 
6.896 9.894 3.904 52 47 42 255 
5.973 10.107 3.921 34 29 29 255 
6.019 10.094 3.903 37 31 29 255 
6.774 10.068 3.934 34 23 22 255 
6.807 10.017 3.91 35 27 24 255 
5.961 10.246 3.927 111 102 94 255 
6.046 10.33 3.899 125 119 112 255 
5.983 10.493 3.942 34 38 33 255 
6.024 10.435 3.901 105 94 87 255 
6.75 10.548 3.82 36 29 33 255 
14.516 10.57 3.883 90 92 83 255 
5.322 11.123 3.903 96 86 76 255 
5.501 11.137 3.905 72 65 62 255 
5.322 11.331 3.896 57 52 53 255 
5.405 11.227 3.899 128 119 107 255 
5.279 11.41 3.908 18 19 19 255 
4.507 11.924 3.899 26 23 22 255 
4.657 11.988 3.912 29 26 25 255 
4.866 11.972 3.906 99 93 87 255 
4.177 12.127 3.899 39 33 31 255 
4.298 12.103 3.909 36 29 27 255 
4.466 12.071 3.901 34 25 23 255 
4.709 12.035 3.907 26 22 21 255 
4.841 12.044 3.902 45 47 45 255 
5.015 12.146 3.943 48 52 48 255 
4.167 12.29 3.896 38 32 30 255 
4.212 12.3 3.905 40 36 33 255 
4.985 12.255 3.983 32 22 19 255 
5.076 12.209 3.998 39 37 37 255 
4.182 12.52 3.901 51 45 42 255 
4.223 12.494 3.901 37 30 28 255 
4.166 12.648 3.898 119 113 105 255 
4.269 12.71 3.901 120 113 107 255 
4.518 12.72 3.888 45 42 23 255 
4.232 12.877 3.908 53 56 52 255 
4.184 13.176 3.961 79 94 81 255 
4.242 13.05 3.897 83 95 85 255 
3.558 13.396 3.963 41 28 29 255 
4.079 13.263 3.998 78 91 80 255 
3.53 13.489 3.897 103 96 89 255 
3.703 13.526 3.902 69 63 58 255 
3.871 13.519 3.929 109 105 96 255 
4.021 13.413 3.812 82 93 81 255 
3.563 13.72 3.904 93 99 88 255 
3.616 13.614 3.889 130 118 111 255 
3.569 13.903 3.922 107 111 102 255 
3.493 14.086 3.94 124 118 111 255 
2.745 14.389 3.855 33 32 28 255 
2.866 14.381 3.932 34 25 23 255 
3.125 14.338 3.912 116 107 102 255 
3.374 14.241 3.923 78 88 81 255 
2.396 14.465 3.911 37 31 29 255 
2.481 14.469 3.897 36 28 26 255 
2.731 14.435 3.874 31 26 23 255 
2.821 14.423 3.844 38 28 26 255 
3.112 14.493 3.895 40 29 27 255 
2.43 14.702 3.9 38 31 29 255 
3.203 14.762 3.907 37 31 27 255 
2.393 14.98 3.885 131 119 112 255 
2.433 14.913 3.899 123 112 104 255 
3.216 14.913 3.896 33 27 29 255 
2.471 15.115 3.9 115 106 102 255 
3.232 15.043 3.882 45 22 20 255 
2.468 15.206 3.903 51 56 59 255 
7.536 3.983 4.103 42 28 27 255 
7.352 4.178 4.108 30 27 30 255 
7.516 4.028 4.105 64 65 62 255 
10 4.154 4.061 30 24 25 255 
10.144 4.15 4.028 28 24 23 255 
10.304 4.15 4.069 35 22 20 255 
10.453 4.142 4.049 86 65 70 255 
7.183 4.379 4.102 51 52 56 255 
7.269 4.279 4.098 51 53 57 255 
9.967 4.296 4.083 39 30 30 255 
10.067 4.207 4.148 33 23 22 255 
10.477 4.306 4.115 31 23 23 255 
7.095 4.498 4.1 61 62 66 255 
9.97 4.493 4.062 45 34 32 255 
6.935 4.706 4.099 56 57 61 255 
7.012 4.611 4.113 69 68 72 255 
9.975 4.699 4.075 35 26 25 255 
6.754 4.939 4.095 64 63 65 255 
6.833 4.838 4.103 65 68 71 255 
9.579 4.93 4.052 32 23 23 255 
9.702 4.877 4.065 27 17 18 255 
9.949 4.83 4.083 24 23 21 255 
6.579 5.174 4.104 61 63 67 255 
6.655 5.072 4.1 53 56 59 255 
9.593 5.04 4.078 39 30 31 255 
9.608 5.137 4.067 76 69 65 255 
10.886 5.096 4.09 42 30 30 255 
6.5 5.28 4.098 59 62 67 255 
9.595 5.388 4.106 49 46 46 255 
9.624 5.297 4.076 119 108 101 255 
10.865 5.241 4.103 39 29 27 255 
9.581 5.426 4.08 41 34 35 255 
9.67 5.528 4.091 39 33 33 255 
10.797 5.565 4.066 21 18 19 255 
10.802 5.581 4.008 24 19 19 255 
6.276 5.679 4.092 84 77 75 255 
9.552 5.731 4.09 38 26 24 255 
9.63 5.629 4.082 30 23 26 255 
10.892 5.69 4.147 23 15 16 255 
9.373 5.966 4.097 42 25 23 255 
9.464 5.85 4.083 40 24 22 255 
11.148 5.995 4.188 28 27 29 255 
9.278 6.095 4.079 40 27 25 255 
11.175 6.02 4.127 26 20 21 255 
11.259 6.131 4.103 25 19 19 255 
5.758 6.373 4.105 104 99 93 255 
8.994 6.386 4.19 17 18 26 255 
9.079 6.36 4.14 32 27 27 255 
11.356 6.251 4.088 27 21 20 255 
11.454 6.35 4.1 29 23 22 255 
5.724 6.411 4.111 123 119 112 255 
8.956 6.52 4.09 36 28 27 255 
9.024 6.434 4.094 41 36 35 255 
11.546 6.473 4.1 29 23 22 255 
11.615 6.569 4.091 29 22 23 255 
8.775 6.765 4.088 39 28 26 255 
8.851 6.665 4.094 41 30 29 255 
9.285 6.723 4.007 65 61 52 255 
11.715 6.695 4.103 32 25 22 255 
8.591 6.997 4.163 31 21 21 255 
8.672 6.901 4.091 40 29 28 255 
9.134 6.923 4.03 41 35 30 255 
11.796 6.801 4.065 39 30 26 255 
11.884 6.902 4.1 38 29 28 255 
8.252 7.171 4.106 44 42 45 255 
8.526 7.095 4.087 41 32 30 255 
8.603 7.005 4.035 39 23 24 255 
8.966 7.15 4.04 52 45 37 255 
9.039 7.055 4.041 39 28 30 255 
11.982 7.019 4.071 39 29 31 255 
12.066 7.121 4.097 39 34 33 255 
12.304 7.187 4.113 37 29 25 255 
4.95 7.364 4.037 73 71 71 255 
7.77 7.344 4.09 41 33 33 255 
7.895 7.325 4.066 39 30 28 255 
8.103 7.29 4.076 41 30 30 255 
8.293 7.245 4.081 37 33 31 255 
8.426 7.234 4.093 39 36 33 255 
8.786 7.385 4.089 38 35 35 255 
8.874 7.266 4.044 45 34 27 255 
12.366 7.227 4.098 34 26 23 255 
12.493 7.272 4.101 31 21 19 255 
12.691 7.298 4.098 30 20 22 255 
12.842 7.349 4.098 27 21 20 255 
4.788 7.573 4.19 130 119 112 255 
4.87 7.472 4.105 118 109 101 255 
7.778 7.486 4.075 43 37 35 255 
7.806 7.557 4.103 48 46 42 255 
8.711 7.481 4.043 46 43 35 255 
12.832 7.498 4.101 30 22 20 255 
7.782 7.747 4.063 43 36 33 255 
7.819 7.687 4.098 46 43 40 255 
8.534 7.714 4.046 40 28 27 255 
8.602 7.624 4.033 39 26 26 255 
12.797 7.756 4.109 44 39 28 255 
12.817 7.705 4.097 37 30 29 255 
4.536 7.993 4.109 70 73 67 255 
7.759 7.841 4.067 41 35 32 255 
7.86 7.925 4.108 43 39 34 255 
8.421 7.868 4.018 36 26 27 255 
12.765 7.956 4.086 41 30 32 255 
12.85 7.85 4.107 39 33 29 255 
4.511 8.05 4.105 39 32 31 255 
7.744 8.127 4.087 40 31 29 255 
7.825 8.027 4.118 42 37 34 255 
12.792 8.011 4.12 41 33 34 255 
12.878 8.11 4.104 47 40 35 255 
7.572 8.361 4.096 43 33 31 255 
7.655 8.252 4.085 44 32 27 255 
12.974 8.226 4.092 64 58 50 255 
13.061 8.329 4.098 64 56 46 255 
7.396 8.593 4.105 66 57 46 255 
7.473 8.492 4.092 49 38 35 255 
13.164 8.454 4.099 62 52 45 255 
13.243 8.547 4.097 59 50 42 255 
7.181 8.794 4.179 46 39 41 255 
7.313 8.7 4.095 50 43 41 255 
13.335 8.659 4.096 51 45 38 255 
13.482 8.751 4.108 34 30 28 255 
7.148 8.915 4.097 59 51 50 255 
7.218 8.826 4.087 43 31 30 255 
13.525 8.891 4.105 22 20 19 255 
6.968 9.161 4.107 77 70 66 255 
7.04 9.062 4.099 82 73 70 255 
13.616 9.014 4.173 13 12 13 255 
6.793 9.395 4.132 48 39 40 255 
6.869 9.297 4.096 59 51 49 255 
7.336 9.314 4.061 52 40 36 255 
13.899 9.36 4.047 15 12 12 255 
6.168 9.589 4.121 48 18 17 255 
6.376 9.575 4.152 44 34 29 255 
6.46 9.568 4.117 35 26 26 255 
6.722 9.494 4.098 47 41 38 255 
6.8 9.4 4.015 40 29 31 255 
7.162 9.544 4.117 50 41 37 255 
7.239 9.443 4.083 48 41 39 255 
13.964 9.441 4.094 15 12 13 255 
14.05 9.544 4.103 14 12 12 255 
14.293 9.583 4.092 10 9 10 255 
5.965 9.743 4.099 41 32 30 255 
6.1 9.704 4.096 35 26 24 255 
6.31 9.687 4.093 34 22 20 255 
6.496 9.646 4.084 37 30 28 255 
6.622 9.634 4.09 33 26 23 255 
6.992 9.769 4.1 78 83 82 255 
7.071 9.664 4.097 45 33 28 255 
14.341 9.633 4.107 13 11 11 255 
14.508 9.667 4.099 14 11 12 255 
14.63 9.677 4.083 12 11 11 255 
5.967 9.874 4.099 42 33 34 255 
6.005 9.961 4.092 41 36 33 255 
6.894 9.897 4.098 34 26 26 255 
5.975 10.116 4.105 39 30 29 255 
6.02 10.087 4.101 41 33 28 255 
6.761 10.097 4.113 32 21 21 255 
6.813 10.071 4.129 30 24 23 255 
5.961 10.251 4.102 113 106 99 255 
6.046 10.331 4.102 128 119 109 255 
5.976 10.527 4.122 44 46 45 255 
6.026 10.437 4.087 97 93 91 255 
14.515 10.572 4.056 85 89 83 255 
14.627 10.528 4.08 91 98 87 255 
5.785 10.776 4.193 112 111 89 255 
5.868 10.68 4.181 71 67 65 255 
5.719 10.893 4.179 91 94 92 255 
5.32 11.123 4.098 93 84 77 255 
5.501 11.133 4.104 75 66 62 255 
5.66 11.064 4.158 118 112 104 255 
5.319 11.33 4.097 69 67 64 255 
5.429 11.231 4.09 114 107 98 255 
5.628 11.315 4.084 38 30 29 255 
5.167 11.563 4.179 86 93 94 255 
5.26 11.438 4.143 39 40 41 255 
4.989 11.797 4.195 68 44 42 255 
5.067 11.704 4.179 58 52 48 255 
4.504 11.928 4.101 26 20 19 255 
4.651 11.983 4.105 30 26 25 255 
4.892 11.942 4.13 93 88 83 255 
5.072 11.938 4.187 67 59 72 255 
4.176 12.13 4.099 39 30 27 255 
4.297 12.103 4.102 37 26 24 255 
4.47 12.072 4.098 36 26 23 255 
4.706 12.032 4.104 28 22 22 255 
4.864 12.049 4.106 50 50 49 255 
5.03 12.155 4.062 47 51 47 255 
4.165 12.299 4.094 34 28 27 255 
4.213 12.299 4.097 35 28 27 255 
4.962 12.241 4.097 24 18 19 255 
5.027 12.262 4.093 19 14 15 255 
4.188 12.514 4.103 46 38 36 255 
4.228 12.507 4.098 41 31 29 255 
4.167 12.642 4.102 122 115 107 255 
4.266 12.719 4.092 129 119 109 255 
4.191 12.944 4.152 40 45 46 255 
4.227 12.872 4.105 43 41 38 255 
3.996 13.198 4.175 75 86 81 255 
4.101 13.107 4.147 63 64 60 255 
4.229 13.073 4.019 72 80 70 255 
3.561 13.394 4.085 42 33 29 255 
3.912 13.313 4.183 62 62 57 255 
4.04 13.279 4.101 67 69 64 255 
3.528 13.488 4.099 101 94 88 255 
3.7 13.528 4.102 69 63 59 255 
3.834 13.476 4.092 121 112 105 255 
3.559 13.731 4.1 84 89 89 255 
3.611 13.618 4.094 130 118 111 255 
3.874 13.695 4.108 42 33 31 255 
3.391 13.987 4.195 65 65 101 255 
3.498 13.912 4.13 93 96 92 255 
3.395 14.1 4.108 98 103 98 255 
3.476 14.09 4.022 123 118 111 255 
2.747 14.39 4.085 31 25 26 255 
2.897 14.366 4.077 35 26 25 255 
3.072 14.363 4.151 66 60 58 255 
3.38 14.232 4.011 108 118 108 255 
2.393 14.465 4.113 33 29 28 255 
2.477 14.472 4.099 35 26 25 255 
2.701 14.425 4.096 35 25 24 255 
2.958 14.426 4.048 34 27 27 255 
3.03 14.433 4.145 35 27 26 255 
2.431 14.698 4.1 38 30 28 255 
3.222 14.616 4.048 30 21 21 255 
2.394 14.975 4.099 131 119 112 255 
2.435 14.909 4.1 120 110 103 255 
3.224 14.936 4.149 34 26 23 255 
2.466 15.104 4.098 122 114 109 255 
3.232 15.021 4.032 35 34 31 255 
2.468 15.209 4.111 96 98 105 255 
7.529 3.98 4.264 58 48 43 255 
7.344 4.178 4.308 30 28 31 255 
7.507 4.024 4.29 81 82 76 255 
9.961 4.183 4.353 35 26 25 255 
10.307 4.149 4.331 31 23 21 255 
10.461 4.142 4.3 12 10 11 255 
7.184 4.378 4.295 94 95 91 255 
7.264 4.28 4.298 89 87 84 255 
9.967 4.254 4.293 43 30 27 255 
10.467 4.264 4.294 28 22 20 255 
7.093 4.501 4.298 91 91 89 255 
6.934 4.711 4.298 97 96 93 255 
7.012 4.612 4.309 117 117 108 255 
6.758 4.941 4.295 96 94 91 255 
6.833 4.842 4.301 101 100 95 255 
6.581 5.177 4.299 97 100 92 255 
6.658 5.073 4.3 95 94 90 255 
10.889 5.103 4.345 43 37 39 255 
6.503 5.283 4.301 107 100 93 255 
10.882 5.2 4.258 47 36 37 255 
6.407 5.579 4.289 130 119 112 255 
9.679 5.569 4.312 36 28 28 255 
6.298 5.682 4.28 85 83 76 255 
6.409 5.623 4.262 115 112 99 255 
9.549 5.739 4.312 36 39 50 255 
9.625 5.638 4.316 40 28 25 255 
10.926 5.724 4.251 24 16 18 255 
6.146 5.935 4.274 51 49 46 255 
6.225 5.829 4.273 51 48 44 255 
9.38 5.961 4.301 43 46 56 255 
9.463 5.856 4.31 46 50 55 255 
